# .PCD v0.7 - Point Cloud Data file format
VERSION 0.7
FIELDS x y z
SIZE 4 4 4
TYPE F F F
COUNT 1 1 1
WIDTH 785
HEIGHT 1
VIEWPOINT 0 0 0 1 0 0 0
POINTS 785
DATA ascii
0.49991786 -0.27127647 0.27240771
0.49989223 -0.27658939 0.27289408
0.49518585 -0.26284194 0.26591954
0.49489415 -0.26867494 0.26849127
0.4946391 -0.27839243 0.26916391
0.49597996 -0.28605855 0.26750448
0.49302989 -0.2631225 0.26257002
0.49123579 -0.26916903 0.26204515
0.49100184 -0.27859688 0.26212722
0.49276114 -0.28619659 0.26254106
0.51308054 -0.26184255 0.27509815
0.51307195 -0.26829442 0.27707279
0.51343209 -0.2778551 0.2783336
0.51194072 -0.28406405 0.27729362
0.50718611 -0.25961351 0.27094311
0.50549829 -0.26782614 0.27402443
0.50597411 -0.27811235 0.27472574
0.50767785 -0.28778529 0.27287817
0.50866681 -0.29624414 0.27023375
0.50503367 -0.25320017 0.26245117
0.50053722 -0.25806686 0.26453137
0.49997127 -0.26468852 0.27037719
0.50043911 -0.28344113 0.27148718
0.49942774 -0.29041129 0.26723289
0.50216657 -0.29815823 0.26483768
0.50138438 -0.30397636 0.26080483
0.49456465 -0.25935388 0.25662911
0.4911691 -0.26849639 0.25625169
0.49117982 -0.2792775 0.25613719
0.49302083 -0.28911388 0.25776869
0.49753755 -0.29857314 0.25616604
0.50043052 -0.30543607 0.25615716
0.49260819 -0.26144493 0.24810313
0.4914155 -0.2692005 0.24757218
0.49147397 -0.2792393 0.24765091
0.49223816 -0.2879861 0.24877474
0.49551713 -0.29627407 0.25009993
0.52759123 -0.26043111 0.27876854
0.52762765 -0.26718578 0.28046316
0.52778935 -0.27725273 0.2807129
0.52845317 -0.28355467 0.28118193
0.52108556 -0.25179058 0.27023631
0.52036816 -0.2580319 0.2745676
0.51969445 -0.26715463 0.27826554
0.52052999 -0.27652788 0.27942955
0.51702976 -0.29281497 0.27380216
0.5172804 -0.29508173 0.27343082
0.51446563 -0.25159118 0.26606312
0.51280385 -0.25549006 0.26974016
0.51491779 -0.29190558 0.27351308
0.51456398 -0.29627007 0.27218175
0.50785899 -0.25135982 0.25887084
0.50305802 -0.25416639 0.25816751
0.50394541 -0.25107944 0.25003818
0.49982834 -0.25518256 0.25137949
0.49852723 -0.30318594 0.25086331
0.49912763 -0.30572391 0.25160992
0.50161737 -0.25256163 0.24175765
0.49608362 -0.25767013 0.24261324
0.49127847 -0.26842219 0.2415721
0.49135381 -0.27770472 0.24170765
0.49343371 -0.2906605 0.24284285
0.49785942 -0.29984391 0.24306647
0.4987492 -0.30592906 0.24417825
0.49231207 -0.26243597 0.23901312
0.49163723 -0.27059528 0.23736747
0.49147427 -0.27836287 0.23819938
0.49212766 -0.28830731 0.23960049
0.49684191 -0.29970604 0.23525673
0.49719483 -0.30505675 0.23560457
0.5408147 -0.25927705 0.28150672
0.54069024 -0.26654464 0.2839728
0.54101443 -0.27689031 0.28482223
0.54081798 -0.28394192 0.28493989
0.53531015 -0.25047684 0.27362463
0.53439802 -0.2566312 0.27787793
0.53378087 -0.26689965 0.28234464
0.53418595 -0.27698874 0.28251109
0.53419286 -0.28389388 0.2827149
0.52871078 -0.24983661 0.26828983
0.5278033 -0.25399441 0.27343705
0.52269298 -0.24817507 0.26033485
0.51741749 -0.24787517 0.25239325
0.51099604 -0.24809153 0.24547875
0.50218868 -0.25116599 0.23848324
0.49983555 -0.25567001 0.235727
0.49917543 -0.25332165 0.23427652
0.49972975 -0.25694421 0.23383997
0.49792594 -0.28086919 0.22645207
0.49960423 -0.28996426 0.2280217
0.49833328 -0.2983228 0.229866
0.4979189 -0.30576259 0.23144166
0.49718487 -0.28130382 0.22277533
0.49813628 -0.28903425 0.22288311
0.49869442 -0.2960093 0.22405438
0.56148195 -0.26845521 0.2892071
0.56177503 -0.27787006 0.28942996
0.55533957 -0.25757271 0.28442407
0.55475891 -0.26645613 0.28714997
0.55482829 -0.27625969 0.28760988
0.55605894 -0.28456694 0.2871623
0.54918545 -0.24990542 0.27695906
0.54760832 -0.25572303 0.28117144
0.54779845 -0.26618207 0.28482258
0.54800212 -0.27602738 0.28547674
0.54847413 -0.28342545 0.28567207
0.54272187 -0.24788433 0.27086747
0.54121327 -0.2523917 0.27707532
0.5366652 -0.24547043 0.26293358
0.53131557 -0.24488862 0.25545087
0.52546972 -0.24497053 0.24640436
0.51556075 -0.24794737 0.24158673
0.57504392 -0.26865044 0.29293188
0.57562959 -0.27543226 0.29379869
0.5758419 -0.28270388 0.29323262
0.56824696 -0.25717229 0.28719246
0.56781667 -0.26566809 0.29063934
0.5679915 -0.27584916 0.29113162
0.56900728 -0.28450781 0.29045695
0.56296831 -0.24850631 0.27978361
0.56193864 -0.25473911 0.28419971
0.56133521 -0.26280531 0.28805894
0.56200492 -0.28685457 0.28851676
0.55679727 -0.24113069 0.26806271
0.55608642 -0.24571384 0.27382344
0.55205417 -0.24075045 0.26341546
0.54977977 -0.24417336 0.26674929
0.54513001 -0.240923 0.25637901
0.54279119 -0.2426561 0.25920272
0.53924567 -0.24127544 0.24970162
0.53576016 -0.24388659 0.2506417
0.53234273 -0.24252386 0.24359308
0.53134698 -0.24366675 0.2454221
0.58822006 -0.26787591 0.29573458
0.58741623 -0.2736184 0.29645872
0.58251178 -0.24955189 0.28670561
0.58268666 -0.25674936 0.28947097
0.58228034 -0.26488954 0.2929849
0.58197695 -0.27488977 0.2952683
0.57868928 -0.28430659 0.29349363
0.57949215 -0.29136467 0.29076701
0.57587194 -0.24711165 0.28301534
0.57550615 -0.25480115 0.28718022
0.57603556 -0.26131433 0.29015315
0.57646614 -0.28975487 0.29034922
0.57881993 -0.29888284 0.28265488
0.57894897 -0.3063395 0.28143486
0.57185054 -0.24105784 0.27107888
0.56962007 -0.24386083 0.2766819
0.57596886 -0.3063097 0.28034633
0.56390917 -0.24044769 0.26694298
0.56351489 -0.24221711 0.2715531
0.55724293 -0.2391564 0.26049286
0.55327851 -0.24017812 0.25275618
0.59698093 -0.24951378 0.28842029
0.59642524 -0.25608575 0.29081059
0.59637046 -0.26491162 0.29430783
0.5973531 -0.27052072 0.29580206
0.59029752 -0.24652399 0.2846992
0.59043705 -0.25423282 0.2889277
0.59080791 -0.26049736 0.29243183
0.5880602 -0.29984874 0.28582168
0.59125113 -0.30500418 0.28695089
0.59202468 -0.31127065 0.2862246
0.58660966 -0.24013765 0.27415627
0.58365881 -0.24259891 0.27871078
0.58469981 -0.29962623 0.28388411
0.58473474 -0.30562335 0.28330463
0.58498704 -0.31101388 0.28388274
0.5798164 -0.24045405 0.26800919
0.57788318 -0.24151424 0.27178127
0.5722906 -0.24048157 0.26186091
0.57831889 -0.24127853 0.26332426
0.56943405 -0.24005575 0.25345013
0.54409009 -0.26303488 0.2131795
0.5416525 -0.26518476 0.21093674
0.60997713 -0.25718772 0.29240018
0.60900462 -0.26407212 0.2938813
0.60158634 -0.24703383 0.2869215
0.60342085 -0.25455815 0.29134917
0.60423201 -0.26297882 0.29372805
0.59813195 -0.23935594 0.27709895
0.59685695 -0.24303091 0.28227872
0.59842777 -0.31085616 0.28720331
0.59146118 -0.23932557 0.27222717
0.59097981 -0.24119996 0.2787016
0.58584034 -0.23855254 0.26399767
0.58009249 -0.23906596 0.25635016
0.57385182 -0.2378495 0.25222024
0.55893797 -0.25576252 0.2187963
0.55133128 -0.25689337 0.21497858
0.54567647 -0.259556 0.20811802
0.54258037 -0.26697212 0.20725109
0.54168028 -0.27392459 0.20599495
0.54442304 -0.26197088 0.19904436
0.54201674 -0.26860386 0.19899513
0.54177684 -0.27718008 0.19902633
0.5463115 -0.28436369 0.19851412
0.54064006 -0.26892671 0.19132636
0.54116011 -0.27630636 0.19214675
0.61720449 -0.25778669 0.2914215
0.61980236 -0.26307282 0.29283434
0.61305404 -0.24406351 0.28242236
0.61443973 -0.2501002 0.28562805
0.60562092 -0.23938379 0.27448767
0.60806811 -0.24015558 0.27587122
0.59957999 -0.23927224 0.26930764
0.59479243 -0.23757482 0.25599417
0.58950031 -0.23717265 0.25048545
0.58776724 -0.23662686 0.24398519
0.56192404 -0.2547667 0.21730052
0.55932391 -0.25475007 0.21396039
0.55321878 -0.25633109 0.19911183
0.54856902 -0.2580331 0.19359596
0.54473501 -0.28282207 0.19380644
0.54807484 -0.28921795 0.19349946
0.54995114 -0.29615003 0.19215457
0.54265183 -0.26089108 0.18593365
0.53912473 -0.26876819 0.18625763
0.54083687 -0.27872354 0.18708932
0.54681474 -0.28844202 0.18584502
0.54953891 -0.29760057 0.18609934
0.53978932 -0.26193476 0.17571932
0.53778702 -0.26945198 0.17731461
0.53898066 -0.27786759 0.17696968
0.54444301 -0.28486454 0.17859533
0.53730261 -0.26353258 0.1694129
0.53603977 -0.26971066 0.16862582
0.53694475 -0.27672035 0.16925815
0.63333803 -0.25782585 0.28794211
0.6321094 -0.2615495 0.29181138
0.62674928 -0.24613851 0.28310895
0.62876981 -0.25394166 0.28525686
0.62832546 -0.25968483 0.28940648
0.61824769 -0.24236111 0.28100097
0.61282712 -0.24007154 0.27520514
0.605371 -0.23829088 0.25813854
0.6057387 -0.2410111 0.26033968
0.60157704 -0.23611817 0.25273368
0.59707117 -0.23532048 0.24465299
0.59307128 -0.23977734 0.23447192
0.59163123 -0.24255326 0.2327227
0.58531171 -0.23973036 0.22796501
0.58478028 -0.24469014 0.22805803
0.57968175 -0.24000837 0.2234773
0.58399522 -0.24745092 0.22133017
0.5845747 -0.25290531 0.21912035
0.5517506 -0.25489616 0.18720931
0.54915124 -0.25640491 0.17983511
0.54726481 -0.29080397 0.18017772
0.54957908 -0.29747134 0.18120503
0.54581898 -0.2576707 0.17108563
0.54202259 -0.28310019 0.17265831
0.54496419 -0.28939372 0.17305468
0.54771113 -0.29759032 0.17148596
0.53924537 -0.26074654 0.16363794
0.53519183 -0.26925886 0.16334149
0.53808767 -0.27997506 0.16407794
0.54327393 -0.28911769 0.16255322
0.54564172 -0.2971465 0.16478893
0.5358001 -0.26207191 0.15399538
0.53406143 -0.2699405 0.15551203
0.53580487 -0.27897751 0.15504412
0.54043496 -0.28642416 0.15643854
0.53326815 -0.26336288 0.14719065
0.53301489 -0.27012986 0.14720778
0.53389257 -0.27738398 0.14752407
0.63774568 -0.24800318 0.28449202
0.63847071 -0.25427315 0.28792399
0.6386435 -0.26003617 0.29121262
0.63425249 -0.2469002 0.28402698
0.6336565 -0.25009316 0.28531551
0.61624134 -0.13901648 0.24839477
0.61676908 -0.14542042 0.24925436
0.61715984 -0.15476649 0.2493891
0.61672729 -0.16450903 0.24829881
0.61613923 -0.17451787 0.24708009
0.61594087 -0.23615232 0.25304401
0.61211556 -0.13864042 0.2428914
0.6117419 -0.14565799 0.2428288
0.61235487 -0.15544696 0.24316011
0.61309558 -0.16547814 0.24372379
0.61404687 -0.17509709 0.24419861
0.61134529 -0.22961339 0.24149512
0.6107893 -0.23339185 0.24698465
0.60714954 -0.22927813 0.23710626
0.60295475 -0.23312435 0.23859434
0.59957612 -0.23777774 0.2314112
0.5928579 -0.23948821 0.22789754
0.58708745 -0.24983129 0.21377227
0.58657897 -0.25431648 0.2142764
0.58566177 -0.25047895 0.2092132
0.54897404 -0.25384641 0.16493878
0.54794562 -0.25496975 0.16582032
0.54713696 -0.25368983 0.15781495
0.54476851 -0.25661063 0.15865473
0.54337686 -0.29295468 0.15837836
0.54578131 -0.29781318 0.15869652
0.54406673 -0.25330114 0.14724351
0.54066998 -0.25746667 0.14989927
0.53858322 -0.28381622 0.14979562
0.54163069 -0.29038167 0.15036073
0.54377198 -0.29761469 0.15037441
0.53815371 -0.2529363 0.1391201
0.53450477 -0.25979629 0.14159197
0.53188765 -0.27059096 0.14180407
0.53386056 -0.28054661 0.14249659
0.53844589 -0.29006934 0.1409142
0.54232943 -0.29642564 0.14167348
0.53250849 -0.25160909 0.13078544
0.53004038 -0.26067585 0.13339882
0.52888882 -0.2707715 0.13467801
0.53023332 -0.28059024 0.13412346
0.53345168 -0.28937393 0.13179629
0.52743655 -0.24465512 0.12158009
0.52634859 -0.2510187 0.12334882
0.52501786 -0.26089162 0.12502772
0.52490604 -0.27105194 0.1254904
0.52588803 -0.28094232 0.12500376
0.52810341 -0.2901879 0.12355635
0.52396196 -0.24588534 0.11595412
0.5216521 -0.25188261 0.1147318
0.52116603 -0.26137006 0.11491185
0.52165949 -0.27133238 0.11503554
0.52205378 -0.28127676 0.11513971
0.52347064 -0.28991073 0.11556683
0.51863158 -0.25490546 0.10797459
0.51828283 -0.26128215 0.10742337
0.51945561 -0.26992303 0.10875843
0.52005011 -0.28204328 0.10935158
0.52029347 -0.28670388 0.10960054
0.66182083 -0.28508204 0.29438794
0.66161573 -0.28979015 0.29366159
0.65575093 -0.28351372 0.29098064
0.65576375 -0.29032397 0.29135567
0.64800477 -0.28688025 0.28744847
0.64934134 -0.28853512 0.28913659
0.6249212 -0.13713226 0.2521821
0.62293255 -0.1461125 0.25466856
0.62438887 -0.15435773 0.25520647
0.62712079 -0.16503577 0.25355971
0.6275034 -0.17402053 0.2534287
0.62691689 -0.1860057 0.25358725
0.62492263 -0.19059904 0.25446457
0.63088989 -0.20865276 0.25256348
0.63111204 -0.21326274 0.2535935
0.63017559 -0.23321906 0.25325567
0.61749709 -0.12950718 0.24439509
0.61945909 -0.13476002 0.24830316
0.62036961 -0.14442581 0.25258118
0.62065917 -0.15600306 0.25245908
0.62018484 -0.16570921 0.25126469
0.62007773 -0.17539328 0.25074905
0.61965263 -0.18531637 0.24974667
0.62034023 -0.19510654 0.24934483
0.62229043 -0.20552813 0.24900772
0.62412238 -0.21488209 0.24834536
0.62548983 -0.22570553 0.24724416
0.62380666 -0.23317395 0.25038821
0.61376053 -0.12905565 0.24134575
0.61222875 -0.13412131 0.24007367
0.60995257 -0.14585173 0.23804192
0.61069983 -0.15613236 0.23810549
0.6116212 -0.16587229 0.23848696
0.6126824 -0.17597324 0.23941456
0.61435729 -0.18551531 0.24154969
0.61555195 -0.19554426 0.24134387
0.61654872 -0.20541003 0.24118362
0.61728233 -0.21545821 0.24113476
0.61693633 -0.22539625 0.24205266
0.61734658 -0.23129621 0.24516033
0.61076653 -0.1375984 0.23198149
0.61037892 -0.1458782 0.23086758
0.61117625 -0.15588644 0.23042208
0.61165911 -0.16578676 0.2302217
0.6125297 -0.1759512 0.23024736
0.61287868 -0.18588623 0.23061477
0.61387515 -0.19580597 0.23049398
0.61428392 -0.20553739 0.23096788
0.61462742 -0.21576388 0.2318991
0.61238992 -0.22494 0.23227976
0.60700923 -0.23104011 0.23140934
0.61078507 -0.14826828 0.2233388
0.61117446 -0.16719021 0.22388244
0.61147887 -0.17710774 0.22411908
0.61129272 -0.18528801 0.22404785
0.61207533 -0.19331628 0.2244591
0.61187667 -0.20496313 0.22500315
0.61029083 -0.22823234 0.22540216
0.60720831 -0.23569714 0.2237085
0.60598767 -0.23879136 0.2175753
0.60566121 -0.24208713 0.2157992
0.58545578 -0.25236404 0.19309293
0.58607304 -0.25409028 0.18913393
0.58033013 -0.25020593 0.18119761
0.58059609 -0.25579163 0.18237758
0.57357454 -0.24926308 0.17521214
0.57474446 -0.25711346 0.17532848
0.57068092 -0.25022438 0.16765639
0.57136714 -0.25669497 0.16787753
0.54643428 -0.25070369 0.1440464
0.54605317 -0.29980087 0.14347574
0.54450929 -0.24402317 0.13033926
0.54301518 -0.24832976 0.13559331
0.5395838 -0.2950809 0.13582058
0.54282188 -0.29859334 0.1380839
0.53878212 -0.23527473 0.12028669
0.53800726 -0.24149828 0.12604484
0.53660059 -0.24729419 0.13032722
0.53680235 -0.29432648 0.1310008
0.53864127 -0.30002069 0.12797917
0.54180211 -0.31094652 0.12405053
0.53319138 -0.23438866 0.11692829
0.52986866 -0.23967421 0.12035251
0.53051692 -0.29528821 0.12275124
0.53231835 -0.30094141 0.12100644
0.5365082 -0.31100655 0.11885992
0.52869743 -0.23470482 0.10952897
0.52465534 -0.24094643 0.11126693
0.52138484 -0.24794659 0.11074881
0.52384335 -0.29447764 0.11273432
0.52712983 -0.30148822 0.11256163
0.53108168 -0.31148767 0.11067545
0.52620417 -0.23636661 0.10266264
0.52216083 -0.24253321 0.10200244
0.51825505 -0.25115472 0.10381277
0.51645923 -0.26223141 0.10362737
0.51777911 -0.27213597 0.10499481
0.5182938 -0.28149998 0.10508144
0.52041948 -0.29156518 0.1049394
0.52521205 -0.30119461 0.10287587
0.52826869 -0.31093282 0.10414964
0.51936609 -0.24518193 0.094812617
0.51605713 -0.25246066 0.095730759
0.51419711 -0.26236296 0.09642455
0.51427245 -0.27210638 0.096207917
0.51582944 -0.28176832 0.095746167
0.51863575 -0.29104978 0.094998643
0.52267557 -0.29808605 0.096646927
0.51634502 -0.27563617 0.087534398
0.51646322 -0.27943307 0.087624267
0.6688655 -0.26300842 0.28653002
0.66965824 -0.27167425 0.28688675
0.66333151 -0.28401375 0.29386514
0.66495556 -0.28963733 0.29305249
0.66431046 -0.25453722 0.28192037
0.66703779 -0.26257476 0.28644767
0.66745818 -0.27334008 0.28664076
0.65992981 -0.25176603 0.27692527
0.64341652 -0.22737877 0.25734937
0.64183021 -0.23114954 0.25749761
0.63422221 -0.12623778 0.24883218
0.63349581 -0.13268617 0.25064164
0.63645279 -0.15909258 0.2537702
0.63616037 -0.16476697 0.2534858
0.63565636 -0.17488919 0.25359157
0.63646817 -0.18484299 0.25302774
0.63918865 -0.18961675 0.25226259
0.63402861 -0.20879795 0.25405133
0.63371396 -0.21514557 0.2529099
0.63889992 -0.22685952 0.249604
0.63935536 -0.23141588 0.25315225
0.63007492 -0.12696208 0.24156867
0.62750518 -0.13093987 0.24486105
0.63125956 -0.22555901 0.24866714
0.62587893 -0.12531942 0.22940995
0.61807734 -0.12642407 0.22429375
0.61464697 -0.13459963 0.22532289
0.61188436 -0.14272818 0.22363894
0.61196589 -0.15405749 0.22403644
0.61452508 -0.22016038 0.2258818
0.61456943 -0.22158585 0.22591555
0.61266822 -0.12695716 0.21908937
0.61269283 -0.13614087 0.21898834
0.61207789 -0.14619958 0.21946032
0.61218596 -0.15428211 0.2214141
0.61246294 -0.16753474 0.21977058
0.61263025 -0.17619988 0.21890888
0.61190712 -0.18646395 0.21905044
0.61301583 -0.19608825 0.21997021
0.6146065 -0.20349333 0.21929342
0.612872 -0.22756575 0.21931611
0.60929018 -0.231576 0.21869187
0.61097139 -0.23023075 0.21320173
0.60893029 -0.2360763 0.21190228
0.60803759 -0.24207367 0.21112119
0.60174185 -0.25158751 0.20507629
0.6051057 -0.25440776 0.19899905
0.59626681 -0.25220209 0.19131033
0.60197258 -0.25661856 0.19279085
0.58986008 -0.2509698 0.18796927
0.58984083 -0.25289392 0.18942432
0.58527666 -0.25046432 0.1831215
0.5858801 -0.2528404 0.18523706
0.57043737 -0.24961312 0.1622507
0.57033312 -0.25644276 0.16237921
0.56716615 -0.25113678 0.15616523
0.56876904 -0.25608104 0.15792996
0.56335765 -0.24955735 0.14492272
0.55894852 -0.24416508 0.13185327
0.55821478 -0.24817784 0.13697341
0.55255026 -0.23358899 0.12347983
0.55159628 -0.24080938 0.12867457
0.55207688 -0.24675985 0.13376591
0.55510098 -0.31073189 0.12742434
0.55362529 -0.31547672 0.12552828
0.54571825 -0.23236945 0.12043655
0.54451162 -0.23722561 0.12451686
0.54653907 -0.30459255 0.12741029
0.54753703 -0.31116062 0.12504272
0.55195445 -0.31608474 0.12380764
0.54005867 -0.23210922 0.11329667
0.53363556 -0.23222423 0.10447513
0.53032589 -0.31294149 0.105556
0.5285024 -0.23402134 0.097106457
0.52393866 -0.23825863 0.096970171
0.5256685 -0.30444592 0.098313466
0.52856028 -0.31213695 0.09925326
0.53080475 -0.31750673 0.095907822
0.52749348 -0.23592712 0.089033425
0.52282161 -0.24182247 0.08856754
0.51906306 -0.25141847 0.087531894
0.51736164 -0.26220176 0.08776962
0.51704627 -0.26870799 0.087813109
0.51804096 -0.28591168 0.088441804
0.51974231 -0.2925967 0.090118736
0.5251196 -0.30181611 0.089940056
0.52862239 -0.3128702 0.090183519
0.5289678 -0.317415 0.091576017
0.52208781 -0.24519309 0.080665626
0.52017146 -0.25270942 0.080369562
0.51862782 -0.26224303 0.080680549
0.51853979 -0.27204043 0.080431074
0.51947361 -0.28183103 0.081255227
0.5210017 -0.29089999 0.082798198
0.52521753 -0.29866558 0.082287349
0.68364716 -0.26403487 0.28987598
0.68286055 -0.28484625 0.2915687
0.68139452 -0.28805518 0.29274458
0.67493623 -0.25538373 0.28496879
0.67657489 -0.26217377 0.28727394
0.6773721 -0.2736088 0.28665715
0.67836475 -0.282754 0.28856605
0.67880541 -0.28897941 0.29080117
0.66933751 -0.25247151 0.28058374
0.66362929 -0.25093153 0.2746532
0.66002387 -0.25063419 0.25703895
0.64880127 -0.22457469 0.2523545
0.65530765 -0.2449148 0.25172579
0.65758556 -0.25007915 0.25434041
0.6379292 -0.12289092 0.24308367
0.6456086 -0.22533192 0.24951331
0.65005195 -0.24358493 0.24913366
0.63419211 -0.12345098 0.23676018
0.62874866 -0.12333066 0.22991171
0.62295008 -0.12271183 0.22266313
0.61804962 -0.20326525 0.21394245
0.62453425 -0.22942445 0.21133409
0.61904407 -0.23080207 0.20801604
0.61572969 -0.23262812 0.20618181
0.60642308 -0.25404131 0.19671862
0.6052295 -0.2540772 0.19518116
0.5697965 -0.24802592 0.1377867
0.56518608 -0.24341218 0.12824002
0.56699997 -0.24686903 0.13296978
0.55886418 -0.23291606 0.12085485
0.56172621 -0.23857507 0.12468836
0.55562872 -0.31489879 0.12397848
0.55460119 -0.23047799 0.11459983
0.54907948 -0.23178591 0.10600966
0.54160279 -0.23190628 0.1014336
0.53345209 -0.2318387 0.094376385
0.53005695 -0.23615077 0.08321242
0.52725917 -0.23857805 0.081296973
0.5273124 -0.30499417 0.083729491
0.52990323 -0.31224263 0.083773226
0.53065503 -0.31781107 0.081944183
0.52498794 -0.24172717 0.074710466
0.52023584 -0.25185663 0.074356176
0.5195694 -0.26128525 0.073681042
0.51962918 -0.27325827 0.074037924
0.52101225 -0.28303444 0.074950494
0.52454972 -0.29272205 0.074390955
0.52699929 -0.30242717 0.075565048
0.52845031 -0.31192082 0.075549357
0.53036439 -0.3177253 0.07894282
0.5228886 -0.24527086 0.066803016
0.52029938 -0.25260296 0.066744402
0.51989949 -0.26265073 0.066618353
0.52028012 -0.27244294 0.06685622
0.52154034 -0.28244632 0.067704648
0.52396905 -0.29211742 0.067355335
0.52643508 -0.30203301 0.067711763
0.52696651 -0.31093824 0.068631351
0.51972252 -0.26471025 0.058993001
0.51980031 -0.27266812 0.058062673
0.51783079 -0.27868754 0.054670174
0.51293766 -0.27420771 0.048691195
0.69704461 -0.26541668 0.29204106
0.69684893 -0.26900929 0.29255089
0.6972248 -0.28538442 0.2929796
0.69049853 -0.26359576 0.2899515
0.69162107 -0.27301377 0.2899563
0.69093055 -0.28162509 0.29094481
0.69014627 -0.28824127 0.29249376
0.68416166 -0.27392811 0.28697175
0.67315048 -0.2469722 0.25995708
0.67225456 -0.24905841 0.26036429
0.66574079 -0.24621236 0.25630611
0.66701543 -0.25035369 0.25795788
0.6596809 -0.24514565 0.25358611
0.63191593 -0.22779676 0.21359535
0.62808353 -0.22938626 0.20870395
0.62545967 -0.23117504 0.20441914
0.58019984 -0.24415503 0.12826633
0.5791347 -0.24709807 0.13203323
0.57433683 -0.23416625 0.11972708
0.57406664 -0.24041323 0.12428067
0.57460058 -0.24557574 0.1290383
0.56825751 -0.2323129 0.11727818
0.56871891 -0.23640886 0.12136281
0.56205916 -0.23072283 0.11078386
0.55502659 -0.2314299 0.10248318
0.53873295 -0.23625213 0.075569108
0.53881431 -0.23689556 0.073766559
0.53590322 -0.23648249 0.071047738
0.53275979 -0.23839338 0.067935914
0.52756715 -0.24287729 0.060155969
0.52423424 -0.24972095 0.057960909
0.52420527 -0.28444654 0.059845269
0.52614975 -0.29415005 0.059769928
0.52653319 -0.30301833 0.061554816
0.52719718 -0.31075811 0.062567748
0.52490067 -0.24496989 0.05098708
0.52306908 -0.25294381 0.052040033
0.52079034 -0.26250923 0.052881014
0.51928931 -0.27344647 0.053774066
0.52326167 -0.28261918 0.055788752
0.52618527 -0.29334599 0.053063463
0.52595598 -0.30301076 0.053267699
0.52550977 -0.30991089 0.054800522
0.52247703 -0.23736879 0.045097772
0.52194846 -0.24475449 0.044635832
0.52031624 -0.25346303 0.044125203
0.51930302 -0.26300818 0.044158097
0.5167554 -0.27264261 0.047364876
0.51576 -0.27819383 0.050543945
0.71037227 -0.27045187 0.29449898
0.71135747 -0.27868092 0.29447761
0.70384693 -0.26408857 0.290189
0.70532352 -0.27149904 0.29301566
0.7032153 -0.28122139 0.29326153
0.70110023 -0.28718781 0.29304767
0.70026547 -0.26176763 0.28665718
0.587093 -0.24237894 0.12499718
0.5867728 -0.24654557 0.12882067
0.57941496 -0.23334122 0.11800953
0.58238214 -0.23844825 0.12225195
0.57606763 -0.23193148 0.11219376
0.57217628 -0.23146774 0.10661293
0.55036998 -0.23794912 0.074944913
0.54276037 -0.23665372 0.068683267
0.54691088 -0.23753005 0.071021914
0.54141098 -0.23459512 0.059941556
0.53902668 -0.23832478 0.061853673
0.53618586 -0.22596529 0.051501766
0.53701937 -0.23268579 0.053425845
0.53448665 -0.23976259 0.054924548
0.53279752 -0.22717085 0.048134435
0.52954084 -0.23343973 0.046930201
0.52716666 -0.24053043 0.048645489
0.52601111 -0.29688048 0.04762229
0.526366 -0.30165428 0.04694904
0.52670795 -0.3107146 0.047379721
0.52623206 -0.23401332 0.042201973
0.52287239 -0.24362105 0.044452578
0.52206314 -0.24864544 0.04334414
0.52103788 -0.26917773 0.039908223
0.52551484 -0.29706168 0.045345429
0.52558374 -0.30417281 0.043419354
0.52518785 -0.30963069 0.044456158
0.71715289 -0.25380468 0.29074699
0.71487367 -0.26106864 0.29194599
0.71268404 -0.26669967 0.29318702
0.71282655 -0.28015661 0.29409057
0.71463758 -0.24620396 0.28600603
0.71386123 -0.25237668 0.28511518
0.71145213 -0.26024169 0.28706104
0.71209145 -0.26687706 0.29185963
0.71195036 -0.28006792 0.29334325
0.71128798 -0.25477844 0.27864105
0.70841569 -0.25922513 0.2804302
0.70177531 -0.24613939 0.26447594
0.6944958 -0.2444333 0.26187831
0.68892294 -0.24314225 0.25867903
0.59393585 -0.24097008 0.12157044
0.59658211 -0.24563749 0.12496159
0.58425581 -0.23297325 0.11367354
0.58932215 -0.23662719 0.11947697
0.58358723 -0.2319418 0.10503354
0.58079904 -0.23158526 0.099186055
0.56102043 -0.2392965 0.069518827
0.55667472 -0.23862825 0.065205045
0.54950488 -0.23216441 0.056458455
0.55206323 -0.23725319 0.061311662
0.54423201 -0.22609992 0.05086799
0.54362649 -0.2283126 0.053434394
0.71802115 -0.24574982 0.2771976
0.71692652 -0.24862504 0.27967095
0.71472943 -0.24601902 0.27155435
0.71375978 -0.25067633 0.27336365
0.71266198 -0.25742614 0.27498287
0.70767826 -0.24615641 0.26513803
0.70897597 -0.247797 0.26751894
0.70213127 -0.24540652 0.26137918
0.60793632 -0.24656564 0.12341215
0.60467529 -0.24187285 0.11581737
0.60421699 -0.24443822 0.12035333
0.59697235 -0.23545861 0.1046325
0.5924409 -0.23230052 0.10129374
0.59308463 -0.23454663 0.10473787
0.58373326 -0.23245452 0.093441084
0.582425 -0.23582828 0.090433374
0.58124214 -0.23451878 0.087018229
0.58123839 -0.23572683 0.088002749
0.56896067 -0.23304021 0.063846774
0.56530571 -0.23756868 0.067450829
0.56404167 -0.23257694 0.058228724
0.56153393 -0.2373925 0.061107337
0.55569941 -0.22618935 0.048557304
0.55748153 -0.22937247 0.052501503
0.55198365 -0.22623491 0.047933765
0.55134368 -0.22718495 0.049035002
0.61780131 -0.2419154 0.11568131
0.61790437 -0.2453113 0.11771873
0.6124444 -0.24038596 0.11035978
0.61134589 -0.2445793 0.11592392
0.60434532 -0.23229428 0.099753894
0.60690743 -0.23641367 0.1027825
0.60081929 -0.23313871 0.098829567
0.57617664 -0.22855933 0.058082886
0.5725643 -0.22523504 0.051974364
0.57177222 -0.22823809 0.054093786
0.56693679 -0.22608869 0.046636622
0.56547296 -0.22750445 0.047377773
0.62613803 -0.23803191 0.11162249
0.62394077 -0.24639252 0.11747561
0.61908329 -0.23792489 0.10623218
0.61297023 -0.23390354 0.099390797
0.61323297 -0.23560542 0.10079863
0.58342505 -0.22484609 0.055348527
0.58586508 -0.22901052 0.056655049
0.57851821 -0.22576319 0.05417373
0.6366995 -0.23081467 0.10713695
0.63860267 -0.23599802 0.10608917
0.64142907 -0.25203675 0.10821453
0.63014942 -0.23776856 0.097001731
0.59805405 -0.23044306 0.056077264
0.59284616 -0.22546414 0.052572105
0.59383237 -0.22801349 0.054695103
0.64639419 -0.24102056 0.10628095
0.64774889 -0.24822979 0.10691787
0.64509422 -0.25413415 0.10763492
0.63927203 -0.23107252 0.10006545
0.63939732 -0.23671277 0.10249965
0.64494359 -0.24868986 0.10572529
0.63617736 -0.2303247 0.093273051
0.63431847 -0.23600134 0.095418826
0.63313907 -0.23042215 0.085506007
0.63070005 -0.23493701 0.088861801
0.63174886 -0.23295388 0.07765238
0.60767263 -0.23048975 0.052847251
0.60288477 -0.22693263 0.04841166
0.63603961 -0.22908598 0.078572087
0.63016063 -0.22356506 0.067947038
0.63435972 -0.22967699 0.070078872
0.63199574 -0.23517169 0.069919027
0.62766874 -0.22357213 0.061906099
0.62947655 -0.22961262 0.060825236
0.62842989 -0.23602207 0.062386192
0.62352443 -0.22403255 0.05321528
0.62309027 -0.22999175 0.053035088
0.62215775 -0.23572342 0.055305913
0.61798245 -0.22462945 0.046878379
0.61591178 -0.22874364 0.047204241
