# .PCD v0.7 - Point Cloud Data file format
VERSION 0.7
FIELDS x y z
SIZE 4 4 4
TYPE F F F
COUNT 1 1 1
WIDTH 1463
HEIGHT 1
VIEWPOINT 0 0 0 1 0 0 0
POINTS 1463
DATA ascii
0.54619968 0.14427134 0.19231415
0.54476309 0.14404331 0.19242024
0.54366922 0.14393014 0.19202867
0.54257756 0.14381719 0.19163793
0.54148829 0.14370449 0.19124794
0.54040122 0.143592 0.19085878
0.53865528 0.14325406 0.19146305
0.53757566 0.14314251 0.1910753
0.53682554 0.14314346 0.19019276
0.53607547 0.14314441 0.18931025
0.53499961 0.1430331 0.18892515
0.52006668 0.14041583 0.19195873
0.51873326 0.14020358 0.19206178
0.51770401 0.14009823 0.19168437
0.51667678 0.1399931 0.19130766
0.51535547 0.13978255 0.1914117
0.5140394 0.13957286 0.19151527
0.51331401 0.13957377 0.19066188
0.51200473 0.1393649 0.19076675
0.51099038 0.13926125 0.19039357
0.50940156 0.13894965 0.19097519
0.50753731 0.13853678 0.19202694
0.50653541 0.13843475 0.19165552
0.5055356 0.13833292 0.19128478
0.50453764 0.13823131 0.19091481
0.50354171 0.13812988 0.19054562
0.50254774 0.13802867 0.19017708
0.50100255 0.13772437 0.19075245
0.49946645 0.13742188 0.1913245
0.49739754 0.13692106 0.19282496
0.49561608 0.13652408 0.19384909
0.49491185 0.13652498 0.19302055
0.49394169 0.13642688 0.19265532
0.49297336 0.13632898 0.19229084
0.4920069 0.13623126 0.19192711
0.49130473 0.13623215 0.19110096
0.49034086 0.13613462 0.19073868
0.48937884 0.13603729 0.19037712
0.48867804 0.13603818 0.18955255
0.48771855 0.13594103 0.18919244
0.46181071 0.12808639 0.22035351
0.46095023 0.12800391 0.21999422
0.45987809 0.1278386 0.22003543
0.45902166 0.12775655 0.21967733
0.45816672 0.12767468 0.21931994
0.45731327 0.12759294 0.21896315
0.45625231 0.12742908 0.219006
0.45540285 0.12734777 0.21865043
0.45434803 0.12718476 0.2186937
0.45309174 0.12694095 0.21913368
0.45204562 0.12677938 0.2191759
0.45120582 0.12669921 0.21882272
0.45036748 0.12661919 0.21847007
0.4495306 0.1265393 0.21811813
0.71317804 0.16712159 0.1973539
0.71162373 0.16695356 0.19686812
0.70944989 0.16661762 0.19698602
0.67641366 0.16007721 0.21011209
0.67553663 0.16007832 0.20908016
0.67465955 0.16007943 0.20804825
0.67378247 0.16008055 0.20701635
0.67290539 0.16008167 0.20598441
0.6720283 0.16008279 0.20495251
0.67115122 0.16008389 0.2039206
0.66973031 0.1599333 0.20345277
0.66831291 0.15978308 0.20298594
0.66689885 0.1596332 0.20252031
0.66548818 0.1594837 0.20205578
0.66301596 0.1590351 0.2027154
0.66108847 0.1587382 0.20281225
0.65812457 0.15814754 0.2040205
0.65622246 0.15785486 0.20411354
0.65484452 0.15770958 0.20365375
0.65244508 0.15727365 0.20429838
0.65107822 0.15712975 0.20384049
0.64920837 0.15684187 0.20393324
0.64835399 0.15684296 0.20292807
0.64699668 0.15670007 0.20247346
0.64564264 0.15655753 0.2020199
0.64429164 0.15641531 0.20156741
0.64344037 0.15641639 0.20056576
0.64258897 0.15641747 0.19956413
0.64173764 0.15641856 0.1985625
0.6403929 0.15627667 0.1981146
0.63954258 0.15627776 0.19711414
0.6386922 0.15627883 0.19611368
0.63784182 0.15627992 0.19511321
0.6369915 0.15628099 0.19411278
0.63565385 0.15613943 0.1936706
0.63480449 0.15614052 0.1926713
0.63444054 0.15628424 0.19111139
0.63310581 0.15614268 0.19067273
0.63225651 0.15614375 0.18967342
0.63092601 0.15600252 0.18923697
0.6295985 0.15586162 0.18880153
0.6282742 0.15572104 0.18836713
0.62600654 0.15529914 0.18905458
0.62328738 0.15474081 0.19029295
0.62059331 0.1541876 0.19151992
0.61792386 0.1536395 0.19273561
0.61663717 0.15350404 0.19230467
0.61535347 0.15336891 0.19187465
0.61362278 0.15309849 0.19199187
0.61234689 0.15296428 0.19156367
0.61062896 0.1526957 0.19168121
0.60891885 0.15242836 0.19179815
0.60721648 0.15216222 0.19191456
0.60508668 0.15176475 0.19256976
0.60383487 0.15163355 0.19214576
0.60215539 0.151371 0.19226062
0.60048348 0.15110962 0.19237497
0.59839535 0.15071926 0.19302282
0.59632111 0.15033148 0.19366634
0.59384543 0.14981812 0.19483337
0.59221411 0.14956366 0.19494051
0.59059012 0.14931032 0.19504714
0.58978856 0.14931135 0.19410416
0.58857977 0.1491856 0.19368738
0.58777922 0.14918661 0.19274545
0.58657396 0.14906116 0.19233066
0.5857743 0.14906217 0.19138974
0.58457267 0.14893699 0.19097686
0.58337355 0.14881207 0.19056493
0.58217716 0.14868742 0.19015387
0.5809834 0.14856306 0.1897437
0.57939816 0.14831413 0.18986082
0.57781994 0.1480663 0.18997735
0.57663739 0.14794329 0.18956965
0.57545745 0.14782055 0.18916285
0.57389462 0.14757487 0.18928039
0.57233858 0.14733025 0.18939751
0.57116973 0.14720884 0.18899304
0.56849313 0.14660174 0.19066632
0.56473553 0.14564329 0.19385394
0.56322563 0.14540698 0.19395927
0.56245148 0.14540796 0.19304848
0.5616774 0.14540894 0.19213772
0.56090331 0.14540993 0.19122696
0.55976653 0.14529264 0.19082743
0.55899328 0.14529362 0.18991765
0.55822003 0.14529461 0.18900785
0.5570873 0.14517756 0.18861115
0.55560005 0.14494322 0.18872714
0.54840159 0.1433266 0.19310009
0.54729939 0.14321369 0.19270617
0.54619944 0.14310102 0.19231308
0.54510182 0.14298858 0.19192076
0.54366899 0.14276347 0.1920276
0.54257739 0.14265174 0.19163686
0.54182255 0.14265271 0.19074884
0.54106784 0.14265366 0.18986079
0.53964782 0.14242993 0.18997157
0.53856373 0.14231889 0.18958414
0.53781134 0.14231984 0.18869889
0.53705895 0.14232081 0.18781364
0.53597867 0.14220999 0.18742883
0.53490072 0.14209941 0.18704486
0.53382498 0.14198905 0.18666166
0.53275144 0.14187895 0.18627927
0.52097666 0.13960475 0.19050795
0.51963735 0.13939349 0.19061428
0.51830339 0.13918309 0.19072017
0.51697481 0.13897353 0.19082564
0.51535523 0.13866031 0.19141066
0.51433355 0.13855694 0.19103533
0.51331383 0.13845378 0.19066083
0.5122962 0.13835081 0.19028705
0.51099014 0.1381446 0.19039255
0.50968933 0.13793918 0.19049764
0.50782204 0.13752989 0.19155234
0.50653517 0.13732694 0.1916545
0.50581777 0.13732785 0.19081038
0.50510025 0.13732876 0.18996629
0.50410187 0.13722803 0.18959725
0.50282615 0.13702625 0.18970299
0.5015555 0.13682528 0.18980828
0.50001478 0.13652484 0.19038421
0.49821082 0.13612668 0.19142491
0.49615207 0.13563314 0.19292194
0.49517876 0.13553572 0.19255611
0.49447387 0.13553661 0.19172677
0.49323794 0.13534145 0.19182661
0.49200669 0.13514704 0.19192612
0.49130452 0.13514793 0.19109997
0.49034065 0.13505146 0.19073769
0.48963916 0.13505235 0.18991238
0.462892 0.12750328 0.21834213
0.46159491 0.12725513 0.21878928
0.46030474 0.12700829 0.21923405
0.4594464 0.12692685 0.21887606
0.45837787 0.12676358 0.21891922
0.45752349 0.12668258 0.21856248
0.45667064 0.12660173 0.21820635
0.45561078 0.12643962 0.21825054
0.45455468 0.12627807 0.21829456
0.4535023 0.12611711 0.21833846
0.45245361 0.12595671 0.21838218
0.45140862 0.12579687 0.21842575
0.45056933 0.12571757 0.21807319
0.44973159 0.1256384 0.21772122
0.71600449 0.16619471 0.19662917
0.71380836 0.165859 0.19674829
0.71225137 0.16569236 0.19626269
0.71007323 0.16535921 0.19638225
0.67586219 0.15857287 0.21066618
0.67553639 0.15872404 0.20907891
0.67465925 0.15872516 0.208047
0.67433155 0.1588767 0.20645472
0.67290509 0.15872739 0.20598319
0.67257529 0.15887894 0.20438841
0.67169714 0.15888005 0.20335525
0.6702739 0.15873073 0.20288745
0.668854 0.15858176 0.20242083
0.66743767 0.15843317 0.20195526
0.66602468 0.15828492 0.20149088
0.66354752 0.1578401 0.20215335
0.66108823 0.15739849 0.20281103
0.65864646 0.15696004 0.203464
0.65674084 0.15666983 0.2035585
0.6553607 0.15652578 0.2030988
0.65346962 0.15623765 0.20319387
0.65158749 0.15595086 0.20328844
0.65022159 0.15580852 0.20283175
0.6488589 0.15566652 0.20237616
0.64749944 0.15552485 0.20192167
0.64614308 0.15538351 0.20146826
0.64528972 0.1553846 0.20046425
0.64443636 0.15538569 0.19946027
0.64358306 0.15538678 0.19845629
0.6427297 0.15538785 0.19745231
0.64138067 0.15524684 0.19700462
0.64052832 0.15524793 0.19600183
0.63967597 0.15524901 0.19499901
0.63882363 0.1552501 0.19399619
0.63797128 0.15525118 0.1929934
0.63711894 0.15525226 0.19199058
0.63577801 0.15511157 0.19154987
0.63541424 0.15525442 0.18998495
0.63407528 0.15511374 0.18954659
0.63322401 0.15511481 0.18854496
0.63188922 0.15497446 0.1881088
0.63055754 0.15483443 0.18767366
0.62875092 0.15455428 0.18780339
0.62742758 0.15441523 0.18737012
0.62563455 0.15413703 0.18750009
0.62338138 0.15372163 0.18818897
0.61975741 0.15289836 0.19053555
0.61754775 0.1524915 0.19120681
0.61580604 0.15222217 0.19132596
0.61452329 0.15208849 0.19089705
0.61324346 0.15195511 0.19046918
0.61196649 0.15182206 0.19004232
0.6106925 0.15168931 0.18961635
0.60897827 0.15142363 0.18973827
0.60683286 0.15102686 0.19040388
0.6055733 0.15089592 0.18998045
0.60388243 0.15063384 0.1901007
0.60176861 0.15024243 0.19076061
0.60009575 0.1499833 0.19087845
0.59928071 0.14998433 0.18991959
0.59761715 0.14972636 0.19003904
0.58777899 0.14795041 0.19274431
0.58697838 0.14795144 0.19180238
0.58577406 0.14782733 0.19138861
0.58497429 0.14782834 0.19044772
0.58377361 0.14770451 0.19003588
0.58257544 0.14758095 0.18962497
0.58137989 0.14745767 0.18921494
0.57939792 0.14708741 0.18985969
0.57781971 0.14684226 0.18997622
0.57663715 0.14672059 0.18956852
0.57545727 0.14659917 0.18916172
0.57389438 0.14635615 0.18927926
0.57272124 0.14623554 0.1888741
0.57155079 0.14611518 0.1884698
0.56962442 0.14575368 0.18910927
0.56547427 0.14468119 0.19283238
0.56322539 0.14421166 0.19395816
0.56245124 0.14421266 0.1930474
0.56167716 0.14421365 0.19213662
0.56090307 0.14421463 0.19122586
0.55976629 0.14409861 0.19082636
0.55899304 0.14409959 0.18991655
0.55821979 0.14410058 0.18900675
0.55780661 0.14421856 0.18758279
0.55667317 0.14410254 0.18718714
0.554829 0.14375399 0.18781918
0.54874563 0.14226671 0.19259924
0.54764187 0.1421548 0.19220543
0.5465405 0.14204311 0.19181243
0.54544127 0.14193167 0.19142026
0.54434443 0.14182045 0.19102889
0.5429132 0.14159776 0.19113755
0.54249358 0.14171043 0.18974847
0.54140204 0.14159968 0.18935966
0.53997982 0.14137791 0.1894716
0.53856355 0.14115706 0.18958306
0.53814113 0.14126882 0.18819812
0.53705871 0.14115898 0.18781257
0.53565133 0.14093904 0.18792722
0.53457487 0.14082989 0.18754309
0.53350055 0.14072096 0.18715981
0.5324285 0.14061226 0.18677729
0.5313586 0.14050379 0.18639556
0.52965319 0.1401778 0.18700922
0.528274 0.1399619 0.18712449
0.51860386 0.13815962 0.19023609
0.51727331 0.13795191 0.19034263
0.51535505 0.13753806 0.19140965
0.51433337 0.13743582 0.19103432
0.51331365 0.13733378 0.19065982
0.51229602 0.13723193 0.19028601
0.51098996 0.13702793 0.19039151
0.50968915 0.13682476 0.19049662
0.50810736 0.13652104 0.19107679
0.50710297 0.1364208 0.19070554
0.50638413 0.13642171 0.18985975
0.50566518 0.13642263 0.18901396
0.50494635 0.13642354 0.1881682
0.50366521 0.13622276 0.18827707
0.50238913 0.13602278 0.18838549
0.50111806 0.13582358 0.18849352
0.49957708 0.13552579 0.18907386
0.46310568 0.12633632 0.21990949
0.46202585 0.12617339 0.219951
0.46094987 0.12601103 0.2199924
0.46009097 0.12593047 0.2196337
0.45923352 0.12585007 0.21927571
0.45837766 0.12576979 0.21891826
0.45752329 0.12568967 0.21856153
0.45667043 0.1256097 0.21820545
0.4556106 0.12544934 0.21824962
0.4545545 0.12528954 0.21829367
0.45329657 0.12505051 0.21873504
0.45204526 0.12481274 0.21917409
0.45120543 0.1247343 0.21882087
0.45036709 0.12465601 0.21846825
0.44973141 0.12465681 0.21772033
0.71600425 0.16475882 0.19662786
0.71380806 0.16442677 0.19674698
0.71225107 0.16426197 0.19626138
0.71007299 0.16393246 0.19638091
0.67531204 0.15707213 0.21121883
0.6755361 0.15736975 0.20907769
0.67465901 0.15737087 0.20804575
0.67433131 0.15752077 0.20645347
0.67290485 0.1573731 0.20598194
0.67257506 0.15752301 0.20438716
0.6716969 0.15752412 0.203354
0.67027366 0.15737644 0.20288619
0.66939652 0.15737756 0.20185429
0.66797775 0.15723023 0.20138893
0.66656244 0.15708324 0.20092461
0.6646148 0.15678926 0.20102638
0.66214573 0.15635036 0.20168969
0.66022032 0.15605988 0.20178899
0.65935266 0.15606098 0.20076817
0.65691721 0.15562731 0.20142847
0.65501565 0.15534027 0.20152783
0.65312314 0.15505458 0.20162666
0.65175056 0.15491281 0.20117038
0.65038121 0.15477136 0.20071512
0.64901507 0.15463024 0.200261
0.64765227 0.15448947 0.19980788
0.64629257 0.15434903 0.19935584
0.64593947 0.15449165 0.19779277
0.64508313 0.15449274 0.19678524
0.64372647 0.15435229 0.19633678
0.64287114 0.15435338 0.19533044
0.64201581 0.15435447 0.19432408
0.64116043 0.15435556 0.19331771
0.63980997 0.15421543 0.1928739
0.63895565 0.15421651 0.19186872
0.63810134 0.1542176 0.19086355
0.63724697 0.15421869 0.18985838
0.63688362 0.15436098 0.18828592
0.63553822 0.15422085 0.18784803
0.63468397 0.15422194 0.18684286
0.63334262 0.15408213 0.18640718
0.63200462 0.15394266 0.18597251
0.63018829 0.15366361 0.18610668
0.62838042 0.15338588 0.1862402
0.6261071 0.15297115 0.18693668
0.6243192 0.15269662 0.18706757
0.6216079 0.15215035 0.18831512
0.61892152 0.15160909 0.18955117
0.61671472 0.15120667 0.19022584
0.61497498 0.1509403 0.19034722
0.61369312 0.1508081 0.18991947
0.61241424 0.15067619 0.1894927
0.61113822 0.15054458 0.18906695
0.60942113 0.15028122 0.18919024
0.60683262 0.14975703 0.19040272
0.60513699 0.14949724 0.19052216
0.60388219 0.1493683 0.19009954
0.60176837 0.14898117 0.19075942
0.60052311 0.14885339 0.19033843
0.59928048 0.1487259 0.18991843
0.5984655 0.14872694 0.18895954
0.59807539 0.14885651 0.18745857
0.59725946 0.14885755 0.18649864
0.59644353 0.14885858 0.18553871
0.59520555 0.14873108 0.1851241
0.59397042 0.14860389 0.18471035
0.59066021 0.14784145 0.18700433
0.58902884 0.14759026 0.18712935
0.58740461 0.14734018 0.1872538
0.58619314 0.14721607 0.1868428
0.58458054 0.14696763 0.18696749
0.5837782 0.14696866 0.18602347
0.58297586 0.14696968 0.18507946
0.58217347 0.1469707 0.18413544
0.58137107 0.14697172 0.18319142
0.57817161 0.14672641 0.18144
0.56469667 0.14348175 0.19191658
0.56355101 0.14336601 0.19151467
0.56314182 0.14348371 0.19008726
0.56236434 0.14348471 0.18917257
0.56122124 0.14336897 0.18877357
0.56080949 0.14348668 0.18734324
0.56039691 0.14360464 0.18590984
0.55998349 0.14372286 0.18447334
0.55920434 0.14372385 0.18355668
0.55842531 0.14372484 0.18264005
0.53989065 0.14043494 0.1875807
0.5391351 0.14043589 0.18669176
0.53804827 0.14032659 0.18630657
0.53597826 0.13988875 0.18742669
0.53490031 0.13978058 0.18704271
0.53382456 0.13967262 0.18665951
0.4633269 0.12566285 0.21753103
0.46245971 0.12558202 0.21717203
0.46159405 0.12550135 0.21681362
0.46072996 0.12542082 0.21645591
0.45986733 0.12534043 0.21609882
0.45879328 0.12517929 0.21614709
0.45772308 0.12501869 0.21619523
0.45665663 0.12485866 0.21624321
0.45580304 0.12477928 0.21588847
0.45495099 0.12470004 0.21553442
0.45389324 0.12454115 0.21558338
0.45283923 0.12438282 0.21563217
0.45199353 0.12430428 0.21527988
0.45114931 0.12422587 0.21492821
0.71791899 0.16382043 0.19479927
0.71570957 0.16348949 0.19492355
0.71477842 0.16349068 0.19382805
0.71321416 0.16332646 0.19334427
0.71228427 0.16332763 0.19225016
0.71009761 0.16299926 0.19238049
0.67553586 0.15601546 0.20907643
0.67367327 0.15646246 0.20325601
0.67279303 0.15646358 0.20222035
0.67136496 0.15631683 0.20175284
0.67048573 0.15631795 0.20071843
0.66960657 0.15631907 0.19968402
0.6681841 0.15617265 0.19922009
0.66622543 0.1558798 0.19932637
0.66427636 0.15558834 0.19943202
0.66233659 0.15529831 0.19953725
0.66093475 0.15515436 0.19907743
0.65848482 0.15472238 0.19974613
0.65553331 0.15415083 0.20096901
0.65415293 0.15400961 0.20051187
0.65277588 0.15386873 0.20005575
0.65191442 0.15386984 0.19904223
0.65105295 0.15387093 0.19802868
0.64968121 0.15373038 0.19757614
0.64831269 0.15359017 0.19712466
0.64745325 0.15359126 0.19611353
0.64659381 0.15359235 0.19510239
0.64523065 0.15345247 0.19465432
0.64437222 0.15345356 0.19364437
0.6435138 0.15345465 0.19263446
0.64265543 0.15345573 0.19162452
0.64080107 0.15317586 0.19174629
0.63994467 0.15317695 0.19073874
0.63908833 0.15317805 0.18973118
0.63872629 0.15331945 0.18815494
0.63786888 0.15332054 0.18714619
0.63701153 0.15332164 0.18613747
0.63615417 0.15332273 0.18512872
0.63578832 0.15346447 0.18354508
0.6349299 0.15346555 0.18253514
0.63309371 0.15318567 0.18267837
0.6317513 0.15304674 0.18224657
0.62992907 0.15276884 0.18239003
0.62811542 0.1524922 0.18253273
0.62583512 0.15207916 0.18324465
0.62404156 0.15180576 0.18338457
0.61770809 0.15045454 0.18702739
0.61550295 0.15005563 0.18771151
0.61421615 0.14992398 0.1872853
0.61293221 0.14979264 0.18686011
0.61210042 0.1497937 0.18588147
0.61037326 0.14953086 0.1860126
0.6090982 0.1494004 0.1855903
0.60826921 0.14940146 0.18461499
0.60699785 0.14927129 0.1841948
0.60572958 0.14914145 0.18377551
0.60359031 0.14875156 0.18446299
0.60189813 0.14849345 0.18459618
0.60150826 0.14862394 0.18307668
0.59982264 0.14836642 0.18321285
0.59857249 0.14823861 0.182798
0.59732509 0.1481111 0.1823841
0.59565663 0.14785589 0.18252119
0.59441674 0.14772925 0.18210903
0.59234202 0.14734893 0.18279359
0.59069586 0.14709716 0.18292889
0.5886451 0.14672107 0.18360692
0.58620071 0.14622319 0.18482
0.58498931 0.14610018 0.18441117
0.58378041 0.14597745 0.18400329
0.58257431 0.14585498 0.18359637
0.58177102 0.14585601 0.18265128
0.58096778 0.14585702 0.18170622
0.57976615 0.14573483 0.18130225
0.57896376 0.14573584 0.18035823
0.57816136 0.14573686 0.17941421
0.57735896 0.14573789 0.17847019
0.5761627 0.14561595 0.17807019
0.57496893 0.14549428 0.17767113
0.57299948 0.14512889 0.1783568
0.5710429 0.14476588 0.17903799
0.56909925 0.14440525 0.17971462
0.56754684 0.14416648 0.17985311
0.56600118 0.14392875 0.17999095
0.56483662 0.14381078 0.17959586
0.56367469 0.14369304 0.17920163
0.56214416 0.14345737 0.17934027
0.56062019 0.14322272 0.17947838
0.55910289 0.14298908 0.17961583
0.55686688 0.14252381 0.18080565
0.55608773 0.14252479 0.17988902
0.55458987 0.14229415 0.18002471
0.55381238 0.14229515 0.17911005
0.55303496 0.14229614 0.17819536
0.55190182 0.14218168 0.17780814
0.55041766 0.1419525 0.17794785
0.54893982 0.1417243 0.17808694
0.54781711 0.14161107 0.17770189
0.5456574 0.14115755 0.17888469
0.54351592 0.1407079 0.18005747
0.54206979 0.14048497 0.18019056
0.54096723 0.14037435 0.17980772
0.53953099 0.14015281 0.17994088
0.53810078 0.13993222 0.1800735
0.53667653 0.13971254 0.18020558
0.53591788 0.13971351 0.17931288
0.52003944 0.13714641 0.18174821
0.51899415 0.13704269 0.18137592
0.51825476 0.13704364 0.18050599
0.51721239 0.13694012 0.18013531
0.51647377 0.13694106 0.17926627
0.51573515 0.136942 0.17839724
0.51469642 0.13683869 0.17802906
0.51336163 0.13663176 0.17816144
0.51262522 0.1366327 0.17729503
0.51188886 0.13663363 0.17642865
0.51085716 0.13653095 0.1760636
0.50982761 0.13642848 0.17569929
0.50850809 0.13622323 0.17583579
0.50719392 0.1360188 0.17597175
0.50733173 0.13632809 0.17360824
0.46354496 0.12474014 0.2171244
0.46289441 0.12474097 0.21635902
0.46202683 0.12466091 0.21600074
0.46116078 0.12458099 0.21564308
0.46051142 0.12458181 0.2148791
0.45964751 0.12450203 0.21452278
0.45835912 0.12426192 0.21498013
0.45707756 0.12402306 0.21543509
0.45601228 0.12386481 0.21548438
0.45495081 0.12370713 0.21553349
0.45389307 0.12355 0.21558249
0.45304492 0.12347205 0.21522963
0.45219827 0.12339424 0.21487737
0.45135313 0.12331657 0.21452576
0.71727872 0.16221458 0.19540861
0.71507382 0.1618882 0.19553113
0.71351111 0.16172624 0.19504586
0.71195245 0.16156468 0.19456175
0.71165359 0.16172859 0.19286048
0.71135408 0.16189294 0.19115475
0.70979613 0.16173096 0.19067508
0.71075249 0.16222286 0.18773028
0.71171629 0.16271859 0.18476272
0.71078038 0.16271979 0.18366155
0.70984441 0.16272096 0.18256041
0.70827854 0.16255689 0.18208867
0.70484459 0.16190121 0.18349612
0.6704855 0.15496036 0.20071718
0.67015195 0.15510772 0.19911212
0.6687271 0.1549626 0.19864836
0.66676486 0.15467231 0.19875607
0.66534919 0.15452826 0.19829443
0.6634022 0.15424006 0.19840258
0.66252828 0.15424116 0.1973744
0.66006374 0.15381093 0.19805172
0.65761697 0.15338376 0.19872412
0.65570694 0.15310106 0.19883028
0.6543231 0.15296076 0.19837454
0.6534586 0.15296185 0.19735739
0.65156525 0.15268116 0.19746643
0.65019131 0.15254186 0.19701394
0.64932978 0.15254295 0.19600043
0.64846838 0.15254405 0.19498688
0.64760691 0.15254514 0.19397336
0.64623922 0.15240616 0.19352561
0.64537877 0.15240726 0.19251326
0.64502251 0.15254843 0.19093278
0.64416111 0.15254952 0.18991923
0.64279747 0.15241054 0.18947628
0.64143711 0.1522719 0.1890344
0.64057767 0.15227298 0.18802327
0.63971829 0.15227407 0.18701217
0.63885891 0.15227517 0.18600103
0.63799948 0.15227626 0.1849899
0.63714004 0.15227735 0.18397877
0.63677448 0.1524182 0.18239
0.63591409 0.15241928 0.18137768
0.63456184 0.15228063 0.1809454
0.6337024 0.15228172 0.17993426
0.63186705 0.15200429 0.18008381
0.63004029 0.15172817 0.18023264
0.62726384 0.15117873 0.18152991
0.62498653 0.15077031 0.18224531
0.62319493 0.15049997 0.18238759
0.6218797 0.15036581 0.18196115
0.62010157 0.15009734 0.18210357
0.61833185 0.14983013 0.18224531
0.61657023 0.14956416 0.1823864
0.61481678 0.14929941 0.18252683
0.61307144 0.14903589 0.18266663
0.61178446 0.14890511 0.18224525
0.61050034 0.14877464 0.18182486
0.60966659 0.1487757 0.18084395
0.60838652 0.14864551 0.18042564
0.60710931 0.14851563 0.18000832
0.60627747 0.14851668 0.17902967
0.60500413 0.1483871 0.17861441
0.60329521 0.14812776 0.17876196
0.60159397 0.14786963 0.17890894
0.59946883 0.14748408 0.17961299
0.59650528 0.14684661 0.18141866
0.5944165 0.14646798 0.18210787
0.59317946 0.14634304 0.18169659
0.59194505 0.14621837 0.18128631
0.59071362 0.14609398 0.18087685
0.58865821 0.14572044 0.18156329
0.58702576 0.14547314 0.18170086
0.58540058 0.14522693 0.18183786
0.58378267 0.14498183 0.1819742
0.58257389 0.14486019 0.18156856
0.58176887 0.14486121 0.18062139
0.5805636 0.14473985 0.18021774
0.57936108 0.14461876 0.17981496
0.57855773 0.14461978 0.1788699
0.5777545 0.14462081 0.17792484
0.57695127 0.14462182 0.17697978
0.57575405 0.14450099 0.17658103
0.57455945 0.14438042 0.1761831
0.57258916 0.14401829 0.17687446
0.57063186 0.14365855 0.17756125
0.56906927 0.14342035 0.17770505
0.56713414 0.14306454 0.17838535
0.56596458 0.14294711 0.17799073
0.56479764 0.14282995 0.17759699
0.56363314 0.14271304 0.17720401
0.56209934 0.14247897 0.17734733
0.56094158 0.14236283 0.17695594
0.55868554 0.14189777 0.17816368
0.55644888 0.1414367 0.17936102
0.55494857 0.14120814 0.17949802
0.55381215 0.14109471 0.17910895
0.55267823 0.14098154 0.17872071
0.55154657 0.14086862 0.17833334
0.5500648 0.14064248 0.17847177
0.54858935 0.14041732 0.17860961
0.54712009 0.14019312 0.17874688
0.54496789 0.13974658 0.17992276
0.54351568 0.1395252 0.18005639
0.54206955 0.13930477 0.18018946
0.54096699 0.1391954 0.17980665
0.53986681 0.13908623 0.17942458
0.53843439 0.13886765 0.17955846
0.53700793 0.13864999 0.17969173
0.53657991 0.13876015 0.17828333
0.51795083 0.13579865 0.18100327
0.51721215 0.13579959 0.18013424
0.51647353 0.13580053 0.1792652
0.51573491 0.13580146 0.1783962
0.51499629 0.1358024 0.17752716
0.51395833 0.13570026 0.17715988
0.51292241 0.1355983 0.17679334
0.51218528 0.13559924 0.17592609
0.51115227 0.13549751 0.17556122
0.51041585 0.13549845 0.17469484
0.5093857 0.13539693 0.17433155
0.50865006 0.13539785 0.17346603
0.50849962 0.13560393 0.17158976
0.46376336 0.12381579 0.21671706
0.46289423 0.12373649 0.21635813
0.46224371 0.12373732 0.21559274
0.46137667 0.12365815 0.21523511
0.46051124 0.12357913 0.21487814
0.4596473 0.12350024 0.21452183
0.45835891 0.12326281 0.2149792
0.45707735 0.12302662 0.21543416
0.45601207 0.12287015 0.21548346
0.45515907 0.12279253 0.21512944
0.45410001 0.12263688 0.2151792
0.45325094 0.12255967 0.21482635
0.4524034 0.1224826 0.21447414
0.45155734 0.12240565 0.21412259
0.71920341 0.16126391 0.19357058
0.71826744 0.16126511 0.19246942
0.71797419 0.16143012 0.19075
0.71768004 0.16159555 0.18902618
0.71803021 0.16192652 0.18667194
0.72033417 0.16275969 0.18240365
0.72200871 0.16343436 0.17872474
0.71844029 0.16276209 0.18017548
0.7168448 0.16259603 0.17970133
0.71525335 0.16243041 0.1792284
0.71302497 0.16209923 0.17939457
0.71080816 0.16176978 0.17955986
0.70734346 0.16111477 0.18098763
0.70640874 0.16111596 0.17988789
0.70484924 0.16095415 0.1794202
0.70329368 0.16079275 0.17895374
0.70112461 0.16047004 0.17911842
0.69774461 0.15982835 0.18053392
0.69439912 0.15919317 0.18193498
0.67124689 0.15403871 0.19796541
0.66730547 0.1534619 0.19818443
0.66588748 0.15331914 0.19772291
0.66393685 0.15303351 0.19783261
0.66252804 0.15289177 0.19737318
0.66059244 0.15260822 0.19748336
0.65814078 0.15218486 0.19815862
0.65622723 0.15190467 0.19826621
0.6553607 0.15190578 0.19724664
0.65449405 0.15190688 0.19622707
0.65259373 0.15162803 0.19633901
0.65121526 0.15148966 0.19588685
0.64984 0.1513516 0.19543576
0.64897758 0.1513527 0.19442102
0.6481151 0.15135379 0.19340628
0.64725262 0.15135489 0.19239154
0.64639014 0.15135598 0.19137681
0.64552766 0.15135708 0.1903621
0.64466518 0.15135819 0.18934736
0.6432994 0.15122046 0.18890449
0.64243793 0.15122154 0.18789095
0.64107639 0.15108414 0.18745041
0.64021599 0.15108523 0.18643808
0.63885868 0.15094815 0.18599981
0.63799918 0.15094924 0.18498868
0.63763463 0.15108851 0.18340111
0.63726926 0.15122811 0.18180978
0.63640779 0.1512292 0.18079627
0.6350534 0.15109178 0.18036413
0.63468492 0.15123139 0.1787692
0.63333249 0.15109397 0.17833948
0.63198334 0.1509569 0.1779108
0.62918472 0.15040851 0.17922506
0.62641227 0.14986527 0.18052706
0.62413788 0.14946145 0.18124598
0.6205672 0.14892811 0.18153447
0.61925793 0.1487961 0.18111008
0.61702955 0.14839973 0.1818203
0.61481655 0.14800611 0.18252563
0.6130712 0.14774556 0.18266544
0.61178416 0.14761627 0.18224409
0.61094952 0.14761733 0.18126205
0.61011481 0.14761838 0.18028
0.6088326 0.1474894 0.17986187
0.60755348 0.1473607 0.17944467
0.60672069 0.14736176 0.17846489
0.60544538 0.14723334 0.1780498
0.6046136 0.1472344 0.17707115
0.60334218 0.14710629 0.17665812
0.60163701 0.14684989 0.1768102
0.59907508 0.14633952 0.17808318
0.59611046 0.1457078 0.17989954
0.59402061 0.1453326 0.18059465
0.5923633 0.14508423 0.1807355
0.5911299 0.14496098 0.18032628
0.58948457 0.14471427 0.18046725
0.58825862 0.14459185 0.18005967
0.58662522 0.14434679 0.18020073
0.58499908 0.14410283 0.18034121
0.58338028 0.14385995 0.18048105
0.58217061 0.14373942 0.18007663
0.58096361 0.14361918 0.17967308
0.57975924 0.1434992 0.17927048
0.57895505 0.14350021 0.17832437
0.57815093 0.14350124 0.17737827
0.57695103 0.14338151 0.17697865
0.57614779 0.14338253 0.17603356
0.57495141 0.14326307 0.17563587
0.57336724 0.14302391 0.17578498
0.57217789 0.14290525 0.17538884
0.57099128 0.14278683 0.1749936
0.56942272 0.1425498 0.17514351
0.56786114 0.14231378 0.17529276
0.56630635 0.1420788 0.17544132
0.56475836 0.14184485 0.17558926
0.5632171 0.14161192 0.17573661
0.5620544 0.14149633 0.17534566
0.56089413 0.14138101 0.17495561
0.55936795 0.14115009 0.17510366
0.55784845 0.14092018 0.17525104
0.55597258 0.14057666 0.17593122
0.55446851 0.14034921 0.17607605
0.55261362 0.14000939 0.17674994
0.55077064 0.13967173 0.17741951
0.54929048 0.13944817 0.17755991
0.54816616 0.13933723 0.17717496
0.54669631 0.13911508 0.17731541
0.54488778 0.13878314 0.17797753
0.5430907 0.1384533 0.17863539
0.54164386 0.1382349 0.17877162
0.54020321 0.13801742 0.17890728
0.53876865 0.13780084 0.17904228
0.537673 0.13769339 0.17866188
0.5369119 0.13769434 0.17776638
0.51603615 0.13476306 0.17789415
0.51499605 0.13466187 0.17752612
0.5139581 0.13456088 0.17715883
0.51322019 0.13456182 0.17629069
0.51248235 0.13456276 0.17542255
0.51174444 0.1345637 0.17455438
0.51100659 0.13456464 0.17368621
0.50997365 0.13446385 0.17332324
0.50953078 0.13456652 0.17194992
0.50908697 0.13466938 0.17057383
0.50805497 0.13456838 0.17021364
0.50731713 0.13456932 0.1693455
0.50570726 0.13426569 0.17000297
0.46398222 0.12288977 0.21630895
0.46333051 0.12289061 0.2155422
0.46246094 0.12281206 0.21518397
0.46180981 0.1228129 0.21441793
0.46094245 0.12273449 0.21406108
0.4600766 0.12265623 0.21370482
0.45878476 0.12242061 0.21416521
0.4574998 0.12218627 0.21462315
0.45643187 0.122031 0.214674
0.45536774 0.1218763 0.21472466
0.45430738 0.12172213 0.21477515
0.45345736 0.12164567 0.21442237
0.45260888 0.12156934 0.21407023
0.4517619 0.12149315 0.21371871
0.72771978 0.16195728 0.18544298
0.7267679 0.16195849 0.18432304
0.72581601 0.16195969 0.1832031
0.72552752 0.16212843 0.18144217
0.72523832 0.16229762 0.17967656
0.72428393 0.16229883 0.17855367
0.72266805 0.16213207 0.17807794
0.72105658 0.16196574 0.17760342
0.71944916 0.16179986 0.17713016
0.71849859 0.16180107 0.17601168
0.71689665 0.16163562 0.17554116
0.71594727 0.16163681 0.17442414
0.71241975 0.16097568 0.17589349
0.70892882 0.16032138 0.17734766
0.70735794 0.16015977 0.17688084
0.70579112 0.15999858 0.17641523
0.70360434 0.15967624 0.17658737
0.70081079 0.15919523 0.17739165
0.67323184 0.15296337 0.1978538
0.67179632 0.15282016 0.19738933
0.66981703 0.15253367 0.19750065
0.66839087 0.15239151 0.19703826
0.66696817 0.15224968 0.19657704
0.66554892 0.15210821 0.19611686
0.66467077 0.15210932 0.19508371
0.66272062 0.15182628 0.19519997
0.66077995 0.15154459 0.19531557
0.65832174 0.15112406 0.19600028
0.65640318 0.15084575 0.19611335
0.65553451 0.15084687 0.19509131
0.65310973 0.15043133 0.19577271
0.65172899 0.15029421 0.19532064
0.65035152 0.15015742 0.19486967
0.64948797 0.15015852 0.19385374
0.6481148 0.15002206 0.19340503
0.64725232 0.15002315 0.19239032
0.64638984 0.15002425 0.19137558
0.64552736 0.15002535 0.19036084
0.64466494 0.15002644 0.18934613
0.6432991 0.14989029 0.18890327
0.6424377 0.14989139 0.18788972
0.64107609 0.14975555 0.18744919
0.64021569 0.14975666 0.18643686
0.6393553 0.14975774 0.18542454
0.63849485 0.14975883 0.18441221
0.6376344 0.14975993 0.18339989
0.63726902 0.14989795 0.18180856
0.63690269 0.15003631 0.18021351
0.63554609 0.14990014 0.1797815
0.63468462 0.14990124 0.17876798
0.63382316 0.14990233 0.17775443
0.6324718 0.14976649 0.17732593
0.63063717 0.14949469 0.17748183
0.62881118 0.14922416 0.17763698
0.62651491 0.14882024 0.17837042
0.62376153 0.1482857 0.17967331
0.61972249 0.14762534 0.18053979
0.61748993 0.14723259 0.1812529
0.61527276 0.14684257 0.18196106
0.61352432 0.14658441 0.18210232
0.61223531 0.1464563 0.1816811
0.61139965 0.14645736 0.18069792
0.61011457 0.14632955 0.18027884
0.60883236 0.14620204 0.17986068
0.60755324 0.14607482 0.17944348
0.60672045 0.14607587 0.1784637
0.60544515 0.14594895 0.17804864
0.60461336 0.14595 0.17706996
0.60334194 0.14582336 0.17665696
0.60207343 0.145697 0.17624485
0.60037303 0.14544411 0.17639774
0.59739095 0.14481533 0.17822984
0.59486562 0.14431763 0.17948776
0.59320271 0.14407097 0.17963138
0.59154713 0.14382543 0.1797744
0.59031463 0.14370359 0.17936626
0.58867121 0.14345969 0.17950937
0.58703506 0.14321691 0.17965186
0.58581454 0.14309643 0.17924607
0.58419025 0.14285526 0.17938867
0.58257318 0.14261515 0.17953062
0.58136439 0.142496 0.17912728
0.58015835 0.14237712 0.17872477
0.57895482 0.14225852 0.17832321
0.57815075 0.14225955 0.1773771
0.57695079 0.14214119 0.17697749
0.57614756 0.14214222 0.17603242
0.57495117 0.14202413 0.17563474
0.57375753 0.14190631 0.17523783
0.57217771 0.14167041 0.17538771
0.57099104 0.14155336 0.17499247
0.56942248 0.14131902 0.17514238
0.5678609 0.14108571 0.17529163
0.56668544 0.14096995 0.17489865
0.56475818 0.14062214 0.17558813
0.56321692 0.14039187 0.17573547
0.56242675 0.14039287 0.17480585
0.56126487 0.14027862 0.17441595
0.5566988 0.13959527 0.17486209
0.55332863 0.13903205 0.17568833
0.55112457 0.13858522 0.17689112
0.54964209 0.13836373 0.1770328
0.54886711 0.13836472 0.17612106
0.54739261 0.13814418 0.17626405
0.545578 0.13781463 0.1769309
0.54411829 0.13759641 0.17707145
0.54232371 0.13727035 0.1777322
0.54054046 0.13694634 0.17838877
0.53910363 0.13673179 0.17852509
0.53800654 0.13662535 0.17814481
0.53724456 0.13662632 0.17724836
0.53648269 0.13662729 0.17635196
0.53538942 0.13652104 0.17597437
0.5339694 0.1363083 0.17611516
0.51829576 0.13412839 0.17624694
0.51724803 0.13402732 0.17587873
0.51620233 0.13392648 0.1755113
0.51485777 0.13372444 0.1756494
0.51381779 0.1336242 0.17528334
0.51307839 0.13362513 0.17441341
0.51204133 0.1335251 0.1740489
0.51100636 0.13342527 0.17368519
0.50997341 0.13332564 0.1733222
0.50953054 0.13342714 0.17194888
0.50879264 0.13342808 0.17108074
0.50776207 0.13332845 0.1707204
0.50702488 0.13332938 0.16985315
0.50512862 0.13293007 0.17101383
0.50324774 0.13253398 0.17216516
0.50251657 0.13253492 0.17130488
0.50264013 0.13283332 0.16892958
0.46442124 0.12204087 0.21549147
0.46354914 0.12196292 0.21513265
0.46267861 0.12188515 0.21477455
0.46202692 0.12188597 0.21400779
0.46137524 0.1218868 0.21324104
0.46029174 0.12173083 0.21329477
0.45942646 0.12165347 0.2129392
0.45813638 0.12142055 0.21340168
0.45685312 0.12118888 0.21386164
0.45578635 0.12103538 0.21391386
0.45472336 0.12088244 0.21396583
0.45387149 0.12080659 0.21361315
0.45302111 0.12073086 0.21326113
0.45217225 0.12065527 0.2129097
0.73378789 0.16199367 0.17965141
0.73078966 0.16148883 0.18046796
0.72915673 0.16132227 0.17998716
0.72819853 0.16132349 0.17885983
0.72724032 0.16132469 0.1777325
0.72628212 0.16132592 0.17660517
0.7246573 0.16115977 0.17613006
0.72303677 0.16099405 0.17565626
0.72142041 0.1608288 0.17518368
0.7198084 0.16066396 0.17471236
0.71820056 0.16049954 0.17424229
0.71659696 0.1603356 0.17377341
0.71435058 0.16000773 0.17395493
0.71211576 0.15968159 0.17413545
0.70925641 0.15919495 0.17495871
0.70704937 0.15887301 0.17513546
0.70485371 0.15855274 0.17531133
0.70266938 0.15823412 0.1754863
0.67289937 0.15174165 0.1962342
0.67146248 0.15159976 0.1957711
0.67002904 0.1514582 0.19530916
0.66859919 0.151317 0.19484833
0.66717279 0.15117615 0.19438863
0.66629142 0.15117727 0.19335169
0.66486955 0.15103675 0.19289434
0.66398931 0.15103787 0.19185865
0.66150159 0.15061614 0.19256085
0.65956151 0.15033703 0.19268301
0.65921628 0.15047808 0.19107604
0.65623295 0.14992145 0.19235232
0.65379691 0.14950776 0.19304603
0.65292823 0.14950886 0.19202399
0.65154272 0.14937235 0.19157478
0.65016055 0.14923617 0.19112667
0.64878166 0.14910032 0.19067964
0.64791608 0.14910141 0.18966126
0.6470505 0.14910251 0.18864292
0.64618498 0.14910361 0.18762454
0.64481246 0.14896809 0.18718219
0.64394796 0.14896919 0.18616503
0.64308345 0.14897028 0.18514788
0.64221889 0.14897138 0.18413073
0.64085269 0.14883617 0.18369308
0.63998926 0.14883725 0.18267715
0.6391257 0.14883836 0.18166119
0.63876075 0.14897577 0.18006212
0.63789618 0.14897688 0.17904496
0.63703167 0.14897797 0.17802781
0.63716161 0.1492527 0.17583293
0.63579822 0.14911681 0.17540413
0.63394469 0.14884494 0.17556554
0.61841404 0.14619251 0.18011534
0.6166482 0.14593436 0.1802617
0.61489046 0.1456774 0.18040738
0.61314094 0.14542164 0.18055236
0.61185086 0.14529473 0.18013251
0.61056376 0.14516811 0.17971355
0.60927963 0.14504178 0.1792956
0.60799843 0.14491574 0.17887861
0.60672021 0.14478999 0.17846251
0.60544491 0.14466454 0.17804745
0.60461313 0.1446656 0.1770688
0.6033417 0.14454041 0.17665577
0.60207319 0.14441554 0.17624366
0.60037279 0.14416556 0.17639658
0.59781957 0.14366798 0.17766997
0.59528947 0.14317492 0.17893183
0.59362364 0.14293057 0.17907691
0.5923847 0.14280932 0.17866811
0.59073102 0.14256662 0.17881328
0.58949941 0.14244621 0.17840624
0.58827066 0.14232604 0.17800003
0.5870446 0.14220616 0.17759478
0.58582139 0.14208655 0.17719042
0.58419341 0.14184709 0.17733788
0.58257276 0.1416087 0.17748475
0.58095932 0.14137137 0.17763096
0.57975233 0.14125361 0.1772297
0.57854795 0.14113611 0.17682931
0.57734632 0.14101888 0.17642987
0.57654214 0.14101991 0.17548376
0.57534409 0.14090294 0.17508623
0.5741486 0.14078622 0.17468956
0.57295585 0.14066975 0.17429373
0.5717656 0.14055355 0.17389885
0.57019198 0.1403209 0.17405149
0.56824255 0.13997333 0.17474756
0.56706536 0.13985865 0.17435476
0.5651347 0.1395141 0.17504677
0.56359094 0.13928601 0.17519546
0.56279993 0.13928701 0.17426482
0.56163639 0.13917384 0.17387512
0.56047535 0.1390609 0.1734862
0.55894846 0.13883477 0.1736376
0.55742812 0.13860963 0.17378831
0.55627799 0.13849792 0.17340165
0.55476832 0.13827422 0.17355239
0.55254853 0.13782874 0.17476958
0.55070174 0.13749738 0.17544693
0.54921865 0.13727799 0.17559186
0.54809201 0.13716912 0.17520821
0.54661912 0.13695113 0.17535317
0.54549885 0.13684297 0.17497101
0.54403615 0.13662636 0.175116
0.542238 0.13630268 0.17578438
0.54011321 0.13587397 0.17696905
0.5390116 0.13576809 0.17658919
0.53824723 0.13576905 0.17568994
0.53681529 0.135557 0.17583191
0.53572059 0.13545178 0.17545447
0.5342983 0.13524103 0.17559648
0.53288209 0.13503118 0.17573792
0.53082281 0.13461313 0.17690796
0.52070618 0.13328269 0.17647803
0.51965272 0.13318218 0.17610842
0.51860148 0.13308188 0.17573959
0.51785755 0.13308282 0.17486429
0.51650536 0.13288191 0.17500418
0.51515877 0.1326818 0.17514351
0.51411742 0.13258252 0.17477757
0.51307821 0.13248344 0.17441237
0.51204109 0.13238458 0.17404789
0.51100612 0.13228591 0.17368412
0.50997323 0.13218743 0.17332116
0.5092361 0.13218836 0.17245388
0.50849891 0.1321893 0.17158663
0.50746965 0.13209103 0.17122614
0.50644243 0.13199297 0.17086637
0.50484014 0.13169806 0.17151719
0.5032475 0.13140495 0.17216408
0.50251639 0.13140588 0.17130384
0.50292599 0.13179927 0.16842151
0.46289665 0.12095657 0.21436429
0.46224439 0.12095739 0.21359688
0.46137503 0.12088051 0.21324009
0.46050721 0.12080377 0.21288395
0.45964098 0.12072717 0.21252847
0.45856255 0.12057355 0.21258336
0.45727587 0.12034373 0.21304637
0.45599613 0.12011515 0.21350688
0.45493186 0.11996371 0.21355969
0.454079 0.11988859 0.21320704
0.4532277 0.11981361 0.21285498
0.45237792 0.11973877 0.21250367
0.73584282 0.16101044 0.17768902
0.73350632 0.16067512 0.17786327
0.73186111 0.16050875 0.17738339
0.7302202 0.16034278 0.17690471
0.72858369 0.16017731 0.17642736
0.7269516 0.16001223 0.1759513
0.72532368 0.15984762 0.17547646
0.72303641 0.15951845 0.17565489
0.72142017 0.15935512 0.17518231
0.7198081 0.15919222 0.17471102
0.71820033 0.15902975 0.17424092
0.71659672 0.15886772 0.17377207
0.71499729 0.1587061 0.17330444
0.71275795 0.15838292 0.17348692
0.71053028 0.15806143 0.17366844
0.70768082 0.1575817 0.17449242
0.70548069 0.15726437 0.17467019
0.70266908 0.15679082 0.17548499
0.70049596 0.15647756 0.17565903
0.67456412 0.15080027 0.19449157
0.67256606 0.15051696 0.19461066
0.6711278 0.15037639 0.19414896
0.66969311 0.15023617 0.19368839
0.66826189 0.15009628 0.19322902
0.66737837 0.1500974 0.19218957
0.66595173 0.14995785 0.19173253
0.66452849 0.14981864 0.19127658
0.66310871 0.14967978 0.19082174
0.66169244 0.14954124 0.19036806
0.66081321 0.14954236 0.18933365
0.65834004 0.14912653 0.19004413
0.65640992 0.14885136 0.19017217
0.65501189 0.14871483 0.18972254
0.65309668 0.14844164 0.18985093
0.65170765 0.14830607 0.18940327
0.6508379 0.14830717 0.18838
0.64996827 0.14830829 0.18735677
0.64909852 0.14830939 0.18633351
0.64822876 0.1483105 0.18531024
0.64684725 0.14817527 0.18486857
0.64648938 0.1483127 0.18326375
0.64561963 0.14831381 0.18224049
0.64474994 0.14831492 0.18121725
0.64388025 0.14831603 0.18019399
0.64250386 0.14818078 0.17975846
0.6426475 0.14845492 0.17755717
0.64330131 0.14886802 0.17474943
0.64344776 0.14914547 0.17252281
0.63943714 0.14901158 0.16900504
0.63755476 0.14873701 0.16918361
0.63568151 0.14846377 0.16936135
0.63431334 0.14832819 0.16893822
0.61710858 0.14476301 0.17969179
0.61580646 0.14463612 0.17927051
0.61359513 0.1442551 0.17998549
0.61230314 0.1441294 0.17956573
0.61056352 0.14387779 0.17971236
0.60927939 0.14375295 0.17929441
0.60799819 0.14362839 0.17887741
0.60671997 0.14350411 0.17846131
0.60588723 0.14350517 0.17748153
0.60461283 0.14338119 0.17706761
0.60334146 0.14325748 0.17665458
0.60207295 0.14313407 0.1762425
0.60037255 0.14288703 0.17639539
0.5982492 0.14251804 0.17710882
0.59614027 0.14215156 0.17781737
0.59404552 0.14178759 0.17852116
0.59280473 0.1416675 0.17811251
0.59114826 0.1414271 0.17825913
0.58991486 0.14130782 0.17785218
0.5886842 0.14118882 0.17744619
0.58745635 0.14107007 0.17704105
0.58623123 0.14095159 0.1766369
0.58500886 0.14083339 0.17623362
0.58378923 0.14071544 0.17583123
0.58216763 0.14047931 0.17598158
0.58055329 0.14024423 0.17613131
0.57934541 0.1401276 0.17573127
0.5781402 0.14001122 0.17533213
0.57693768 0.1398951 0.17493385
0.57573783 0.13977924 0.1745365
0.57454056 0.13966364 0.17414004
0.57334602 0.13954829 0.17374441
0.57176542 0.13931735 0.17389771
0.57019174 0.13908741 0.17405036
0.56862497 0.1388585 0.17420232
0.56668496 0.13851649 0.17489639
0.5647577 0.13817672 0.1755859
0.56321645 0.13795179 0.17573324
0.56242633 0.13795279 0.17480361
0.5612644 0.13784118 0.17441368
0.56010503 0.13772982 0.17402467
0.55894822 0.13761871 0.1736365
0.55742788 0.1373962 0.17378721
0.55627775 0.1372858 0.17340052
0.55513 0.13717563 0.1730147
0.55290627 0.1367344 0.17423549
0.55141199 0.13651571 0.17438364
0.54992414 0.13629794 0.17453116
0.54879427 0.13618991 0.17414781
0.54731679 0.13597353 0.17429537
0.54619336 0.13586619 0.17391354
0.54507232 0.13575907 0.17353249
0.54360902 0.13554454 0.17368066
0.54215193 0.13533092 0.1738283
0.54036164 0.13501169 0.17450005
0.53959417 0.13501267 0.17359698
0.53815317 0.1348013 0.17374396
0.536385 0.13448542 0.17441249
0.53528965 0.13438122 0.17403609
0.52101535 0.1322321 0.1759693
0.51996052 0.13213257 0.17559987
0.51890785 0.13203324 0.17523119
0.51816308 0.13203418 0.174355
0.51741838 0.13203514 0.17347884
0.51636946 0.131936 0.17311269
0.51502031 0.13173743 0.17325616
0.51397693 0.13163891 0.17289144
0.5126369 0.13144155 0.17303491
0.51130223 0.13124499 0.17317778
0.51026797 0.13114747 0.17281491
0.50953013 0.13114841 0.17194676
0.50879228 0.13114935 0.17107862
0.5077616 0.13105203 0.17071831
0.50673306 0.13095491 0.17035872
0.50512826 0.13066287 0.17101175
0.50324738 0.13027592 0.17216307
0.5028013 0.13037352 0.17079967
0.50263977 0.1305684 0.16892755
0.50247753 0.13076407 0.16704774
0.46464103 0.12010173 0.21508026
0.46376798 0.12002549 0.2147215
0.46289647 0.11994937 0.2143634
0.46224418 0.11995021 0.21359593
0.4615919 0.11995102 0.21282852
0.46050704 0.11979839 0.21288303
0.4596408 0.11972268 0.21252754
0.45856237 0.11957087 0.21258247
0.45748776 0.11941957 0.21263719
0.45620626 0.11919327 0.21309918
0.45514065 0.11904332 0.21315277
0.45407879 0.11889392 0.21320611
0.45322752 0.11881982 0.21285409
0.45237774 0.11874586 0.21250272
0.73860848 0.16018763 0.1750485
0.73625207 0.15985268 0.17523071
0.73459435 0.15968654 0.17475173
0.73294115 0.1595208 0.17427409
0.7306124 0.15918945 0.1744574
0.72829592 0.15885983 0.1746397
0.72599185 0.15853198 0.17482111
0.72369981 0.15820585 0.1750015
0.72208047 0.15804404 0.17452919
0.72046554 0.15788266 0.17405808
0.71885467 0.1577217 0.17358825
0.71724814 0.15756115 0.17311963
0.71564579 0.15740103 0.17265224
0.71340179 0.15708084 0.17283669
0.7111696 0.15676233 0.17302012
0.70768046 0.15612905 0.17449111
0.70548046 0.15581547 0.17466885
0.70266879 0.15534753 0.17548364
0.70111406 0.15519314 0.17502165
0.69833374 0.15472999 0.17583087
0.67334169 0.14957103 0.19181278
0.67189717 0.14943109 0.19135281
0.6699056 0.14915115 0.19147959
0.66847062 0.14901225 0.19102171
0.66649461 0.14873433 0.19114885
0.66506898 0.14859644 0.19069308
0.66364688 0.1484589 0.19023842
0.66222823 0.14832167 0.18978482
0.66134799 0.14832279 0.18874916
0.65940118 0.14804822 0.18888101
0.65799278 0.14791201 0.1884307
0.6571157 0.14791313 0.18739879
0.65518618 0.14764053 0.18753341
0.65431118 0.14764164 0.18650398
0.65343624 0.14764276 0.18547457
0.65256131 0.14764386 0.18444514
0.65168631 0.14764498 0.18341571
0.65133166 0.14778279 0.18179756
0.65045559 0.14778391 0.18076688
0.65009904 0.14792204 0.17914349
0.64974165 0.1480605 0.17751622
0.64886355 0.14806162 0.17648306
0.64798534 0.14806274 0.17544991
0.64659077 0.14792649 0.17501584
0.64622909 0.14806497 0.17338356
0.64586651 0.14820378 0.17174736
0.64550304 0.14834294 0.17010713
0.64513874 0.14848241 0.16846293
0.64374256 0.14834517 0.16803575
0.64286232 0.14834629 0.16700011
0.64147055 0.14820936 0.16657531
0.64008212 0.14807278 0.16615146
0.63768697 0.14766277 0.16694498
0.63580883 0.14739145 0.1671285
0.63294822 0.14685161 0.16851491
0.61626589 0.14346327 0.17869946
0.61450708 0.14321174 0.17884892
0.61321098 0.14308694 0.17842954
0.61101377 0.14271216 0.17914581
0.60927916 0.1424641 0.17929322
0.60799795 0.14234103 0.17887622
0.60671973 0.14221823 0.17846015
0.60544443 0.14209573 0.17804509
0.60461259 0.14209679 0.17706645
0.60334122 0.14197455 0.17665341
0.60207272 0.1418526 0.17624131
0.60037231 0.14160849 0.17639422
0.59824896 0.14124388 0.17710763
0.59614003 0.14088173 0.17781621
0.59446847 0.14064202 0.17796412
0.59280449 0.14040339 0.17811137
0.59156644 0.140285 0.17770368
0.5903312 0.14016686 0.17729694
0.58909869 0.14004901 0.17689109
0.58786893 0.13993143 0.17648619
0.58664203 0.13981408 0.17608213
0.58541781 0.13969702 0.17567903
0.58378899 0.13946263 0.17583007
0.58216739 0.1392293 0.17598045
0.58055305 0.13899702 0.17613018
0.57894588 0.13876574 0.17627919
0.57774246 0.13865101 0.17587987
0.57693744 0.13865203 0.17493272
0.5757376 0.13853756 0.17453536
0.57454032 0.13842334 0.17413887
0.57334578 0.13830934 0.17374328
0.57176518 0.13808115 0.17389658
0.5701915 0.13785394 0.1740492
0.56862473 0.13762774 0.17420119
0.56706488 0.1374025 0.17435253
0.56475747 0.13695402 0.17558476
0.56321621 0.13673174 0.17573211
0.56242609 0.13673274 0.17480248
0.56126416 0.13662247 0.17441255
0.5574277 0.13618277 0.17378607
0.55627751 0.13607368 0.17339939
0.55512977 0.13596483 0.1730136
0.55326474 0.13563772 0.17370027
0.55176812 0.13542113 0.17384973
0.55027789 0.13520548 0.17399856
0.54879403 0.13499077 0.17414671
0.54766667 0.13488424 0.17376423
0.54654169 0.13477793 0.17338252
0.54541898 0.13467187 0.17300165
0.54395342 0.13445942 0.17315114
0.54283714 0.13435403 0.17277175
0.54172325 0.13424885 0.17239314
0.54061174 0.1341439 0.17201534
0.53916407 0.13393371 0.17216611
0.53738701 0.13361959 0.17284173
0.53595382 0.1334116 0.17299002
0.51846933 0.13098338 0.1738447
0.51772392 0.13098434 0.17296761
0.51667351 0.13088618 0.17260161
0.51502013 0.13059106 0.17325512
0.51367652 0.13039564 0.17339802
0.51233834 0.13020101 0.17354035
0.51130199 0.13010445 0.17317674
0.50997281 0.12991101 0.17331904
0.50894201 0.12981506 0.17295682
0.50820565 0.12981598 0.17209044
0.50717771 0.12972023 0.1717298
0.5061518 0.12962465 0.17136985
0.50455201 0.12933722 0.17201853
0.50296187 0.12905154 0.17266327
0.50251591 0.12914781 0.17130178
0.50235403 0.12934002 0.16943252
0.50219142 0.12953299 0.16755569
0.46486145 0.11916903 0.21466923
0.46398741 0.11909355 0.21431053
0.46311492 0.11901823 0.21395242
0.46246204 0.11901905 0.2131843
0.46159172 0.11894383 0.21282756
0.46072295 0.11886877 0.21247149
0.45985574 0.11879383 0.21211606
0.45877594 0.11864354 0.21217176
0.45770001 0.11849378 0.21222728
0.45641685 0.11826973 0.21269077
0.45534986 0.11812131 0.21274513
0.45428672 0.11797342 0.21279925
0.45343444 0.11790007 0.21244729
0.45258373 0.11782685 0.21209598
0.74070215 0.15918784 0.17304906
0.73833072 0.15885425 0.17323738
0.73597193 0.15852246 0.17342472
0.73431242 0.15835784 0.17294753
0.73129201 0.15786418 0.17379633
0.72897065 0.15753765 0.17398068
0.72599149 0.15705051 0.17481974
0.72369957 0.15672828 0.17500013
0.72208023 0.15656841 0.17452782
0.72046518 0.15640897 0.17405674
0.71885443 0.15624994 0.17358691
0.71724784 0.15609133 0.17311829
0.71564555 0.15593314 0.17265087
0.71404731 0.15577537 0.17218474
0.71245337 0.155618 0.17171979
0.70958531 0.15514596 0.17255455
0.70673943 0.15467758 0.17338291
0.70391572 0.15421285 0.17420477
0.70173383 0.15390542 0.1743826
0.69956303 0.15359956 0.1745595
0.67412305 0.14861812 0.1889942
0.67211616 0.14833878 0.18912742
0.66901863 0.14778309 0.19043508
0.66703892 0.14750783 0.19056371
0.66561091 0.14737126 0.19010815
0.66364658 0.14709802 0.19023716
0.66222799 0.14696245 0.18978357
0.66134769 0.14696357 0.18874791
0.65993357 0.14682832 0.18829674
0.65905428 0.14682944 0.1872623
0.65817511 0.14683056 0.18622789
