# .PCD v0.7 - Point Cloud Data file format
VERSION 0.7
FIELDS x y z
SIZE 4 4 4
TYPE F F F
COUNT 1 1 1
WIDTH 1467
HEIGHT 1
VIEWPOINT 0 0 0 1 0 0 0
POINTS 1467
DATA ascii
0.33295128 0.33616045 0.76490808
0.33295128 0.33776504 0.76490808
0.33295128 0.33936962 0.76490808
0.33247498 0.34048641 0.76381379
0.33295128 0.3425788 0.76490808
0.33295128 0.34418339 0.76490808
0.33295128 0.34578797 0.76490808
0.33295128 0.34739256 0.76490808
0.33295128 0.34899715 0.76490808
0.33295128 0.35060173 0.76490808
0.33295128 0.35220629 0.76490808
0.33295128 0.35381088 0.76490808
0.33295128 0.35541546 0.76490808
0.32843882 0.26385373 0.75092238
0.32843882 0.26542896 0.75092238
0.32843882 0.26700422 0.75092238
0.32843882 0.26857945 0.75092238
0.32843882 0.27015471 0.75092238
0.32843882 0.27172995 0.75092238
0.32890141 0.27369013 0.75198007
0.32843882 0.27488044 0.75092238
0.32843882 0.2764557 0.75092238
0.32843882 0.27803093 0.75092238
0.32843882 0.27960619 0.75092238
0.32843882 0.28118142 0.75092238
0.32890141 0.28315493 0.75198007
0.32890141 0.2847324 0.75198007
0.32936531 0.28671369 0.75304067
0.3298305 0.28870055 0.75410426
0.33029702 0.29069307 0.75517088
0.33076486 0.29269123 0.75624055
0.33170456 0.29511362 0.75838894
0.33217639 0.29712659 0.75946772
0.33264956 0.29914531 0.7605496
0.33264956 0.30074075 0.7605496
0.3331241 0.30276749 0.76163459
0.33360001 0.3048 0.76272261
0.33407724 0.30683833 0.76381379
0.33407724 0.30844063 0.76381379
0.33455586 0.31048709 0.76490808
0.33503586 0.31253946 0.76600552
0.33503586 0.31414634 0.76600552
0.33503586 0.31575322 0.76600552
0.33503586 0.3173601 0.76600552
0.33503586 0.31896701 0.76600552
0.33503586 0.3205739 0.76600552
0.33503586 0.32218078 0.76600552
0.33503586 0.32378766 0.76600552
0.33503586 0.32539454 0.76600552
0.33551723 0.32747126 0.76710606
0.33551723 0.32908046 0.76710606
0.33551723 0.33068967 0.76710606
0.33551723 0.33229885 0.76710606
0.33503586 0.33342898 0.76600552
0.33503586 0.33503586 0.76600552
0.33455586 0.33616045 0.76490808
0.33455586 0.33776504 0.76490808
0.33455586 0.33936962 0.76490808
0.33455586 0.34097421 0.76490808
0.33455586 0.3425788 0.76490808
0.33455586 0.34418339 0.76490808
0.33455586 0.34578797 0.76490808
0.33455586 0.34739256 0.76490808
0.33407724 0.34849787 0.76381379
0.33407724 0.35010013 0.76381379
0.33407724 0.35170242 0.76381379
0.33455586 0.35381088 0.76490808
0.33455586 0.35541546 0.76490808
0.33047888 0.26422536 0.75198007
0.33047888 0.26580283 0.75198007
0.33047888 0.26738027 0.75198007
0.33047888 0.26895773 0.75198007
0.33047888 0.2705352 0.75198007
0.33047888 0.27211267 0.75198007
0.33047888 0.27369013 0.75198007
0.33047888 0.2752676 0.75198007
0.33047888 0.27684507 0.75198007
0.33001405 0.27803093 0.75092238
0.33001405 0.27960619 0.75092238
0.33001405 0.28118142 0.75092238
0.33047888 0.28315493 0.75198007
0.33047888 0.2847324 0.75198007
0.33094499 0.28671369 0.75304067
0.33141243 0.28870055 0.75410426
0.3318812 0.29069307 0.75517088
0.3318812 0.29227722 0.75517088
0.33282268 0.29469505 0.75731325
0.33329546 0.29670453 0.75838894
0.33376956 0.29871976 0.75946772
0.33424503 0.30074075 0.7605496
0.33472183 0.30276749 0.76163459
0.33472183 0.30436519 0.76163459
0.33520001 0.3064 0.76272261
0.33567953 0.30844063 0.76381379
0.33616045 0.31048709 0.76490808
0.33664274 0.31253946 0.76600552
0.33664274 0.31414634 0.76600552
0.33664274 0.31575322 0.76600552
0.33664274 0.3173601 0.76600552
0.33664274 0.31896701 0.76600552
0.33664274 0.3205739 0.76600552
0.33664274 0.32218078 0.76600552
0.33664274 0.32378766 0.76600552
0.33712643 0.32586208 0.76710606
0.33712643 0.32747126 0.76710606
0.33712643 0.32908046 0.76710606
0.3376115 0.33116546 0.76820982
0.33712643 0.33229885 0.76710606
0.33712643 0.33390805 0.76710606
0.33664274 0.33503586 0.76600552
0.33616045 0.33616045 0.76490808
0.33616045 0.33776504 0.76490808
0.33616045 0.33936962 0.76490808
0.33567953 0.34048641 0.76381379
0.33616045 0.3425788 0.76490808
0.33616045 0.34418339 0.76490808
0.33616045 0.34578797 0.76490808
0.33616045 0.34739256 0.76490808
0.33616045 0.34899715 0.76490808
0.33616045 0.35060173 0.76490808
0.33616045 0.35220629 0.76490808
0.33616045 0.35381088 0.76490808
0.33616045 0.35541546 0.76490808
0.33712643 0.35804597 0.76710606
0.33205634 0.26422536 0.75198007
0.33205634 0.26580283 0.75198007
0.33205634 0.26738027 0.75198007
0.33205634 0.26895773 0.75198007
0.33158931 0.27015471 0.75092238
0.33205634 0.27211267 0.75198007
0.33205634 0.27369013 0.75198007
0.33205634 0.2752676 0.75198007
0.33158931 0.2764557 0.75092238
0.33158931 0.27803093 0.75092238
0.33158931 0.27960619 0.75092238
0.33158931 0.28118142 0.75092238
0.33205634 0.28315493 0.75198007
0.33205634 0.2847324 0.75198007
0.33205634 0.28630987 0.75198007
0.33252469 0.28829336 0.75304067
0.33299434 0.29028249 0.75410426
0.33346534 0.29227722 0.75517088
0.33393767 0.29427761 0.75624055
0.33441135 0.29628369 0.75731325
0.33488637 0.29829547 0.75838894
0.33536273 0.30031294 0.75946772
0.33584046 0.30233619 0.7605496
0.33631954 0.30436519 0.76163459
0.33680001 0.3064 0.76272261
0.33680001 0.308 0.76272261
0.33728182 0.31004292 0.76381379
0.33776504 0.31209168 0.76490808
0.33824965 0.31414634 0.76600552
0.33824965 0.31575322 0.76600552
0.33824965 0.3173601 0.76600552
0.33776504 0.31851003 0.76490808
0.33776504 0.32011461 0.76490808
0.33776504 0.3217192 0.76490808
0.33824965 0.32378766 0.76600552
0.33873564 0.32586208 0.76710606
0.33873564 0.32747126 0.76710606
0.33873564 0.32908046 0.76710606
0.33873564 0.33068967 0.76710606
0.33873564 0.33229885 0.76710606
0.33824965 0.33342898 0.76600552
0.33776504 0.33455586 0.76490808
0.33776504 0.33616045 0.76490808
0.33776504 0.33776504 0.76490808
0.33728182 0.33888412 0.76381379
0.33728182 0.34048641 0.76381379
0.33776504 0.3425788 0.76490808
0.33776504 0.34418339 0.76490808
0.33776504 0.34578797 0.76490808
0.33776504 0.34739256 0.76490808
0.33776504 0.34899715 0.76490808
0.33728182 0.35010013 0.76381379
0.33728182 0.35170242 0.76381379
0.33776504 0.35381088 0.76490808
0.33776504 0.35541546 0.76490808
0.33922303 0.35856116 0.76820982
0.33410436 0.26459801 0.75304067
0.33410436 0.26617771 0.75304067
0.33410436 0.26775742 0.75304067
0.33410436 0.26933709 0.75304067
0.33363381 0.2705352 0.75198007
0.33363381 0.27211267 0.75198007
0.33363381 0.27369013 0.75198007
0.33363381 0.2752676 0.75198007
0.33316454 0.2764557 0.75092238
0.33316454 0.27803093 0.75092238
0.33316454 0.27960619 0.75092238
0.33316454 0.28118142 0.75092238
0.33316454 0.28275669 0.75092238
0.33316454 0.28433192 0.75092238
0.33363381 0.28630987 0.75198007
0.33410436 0.28829336 0.75304067
0.33410436 0.28987306 0.75304067
0.33457628 0.2918644 0.75410426
0.33504951 0.29386139 0.75517088
0.33552408 0.29586402 0.75624055
0.336 0.29787233 0.75731325
0.33647728 0.29988638 0.75838894
0.3369559 0.30190611 0.75946772
0.33791727 0.30436519 0.76163459
0.33791727 0.30596292 0.76163459
0.33840001 0.308 0.76272261
0.33888412 0.31004292 0.76381379
0.33936962 0.31209168 0.76490808
0.33985654 0.31414634 0.76600552
0.33985654 0.31575322 0.76600552
0.33985654 0.3173601 0.76600552
0.33985654 0.31896701 0.76600552
0.33985654 0.3205739 0.76600552
0.33985654 0.32218078 0.76600552
0.33985654 0.32378766 0.76600552
0.34034482 0.32586208 0.76710606
0.34083453 0.32794246 0.76820982
0.34083453 0.32955396 0.76820982
0.34083453 0.33116546 0.76820982
0.34083453 0.33277696 0.76820982
0.34034482 0.33390805 0.76710606
0.33985654 0.33503586 0.76600552
0.33985654 0.33664274 0.76600552
0.33936962 0.33776504 0.76490808
0.33936962 0.33936962 0.76490808
0.33936962 0.34097421 0.76490808
0.33936962 0.3425788 0.76490808
0.33936962 0.34418339 0.76490808
0.33985654 0.34628406 0.76600552
0.33936962 0.34739256 0.76490808
0.33936962 0.34899715 0.76490808
0.33888412 0.35010013 0.76381379
0.33936962 0.35220629 0.76490808
0.33936962 0.35381088 0.76490808
0.33936962 0.35541546 0.76490808
0.33568406 0.26459801 0.75304067
0.33568406 0.26617771 0.75304067
0.33521128 0.26738027 0.75198007
0.33521128 0.26895773 0.75198007
0.33521128 0.2705352 0.75198007
0.3347398 0.27172995 0.75092238
0.3347398 0.27330521 0.75092238
0.33521128 0.2752676 0.75198007
0.3347398 0.2764557 0.75092238
0.3347398 0.27803093 0.75092238
0.33426967 0.27921349 0.74986774
0.33426967 0.28078651 0.74986774
0.3347398 0.28275669 0.75092238
0.3347398 0.28433192 0.75092238
0.3347398 0.28590718 0.75092238
0.33521128 0.28788733 0.75198007
0.33568406 0.28987306 0.75304067
0.33615819 0.2918644 0.75410426
0.33711049 0.29427761 0.75624055
0.33758864 0.29628369 0.75731325
0.33806819 0.29829547 0.75838894
0.33854908 0.30031294 0.75946772
0.33903134 0.30233619 0.7605496
0.33951497 0.30436519 0.76163459
0.34 0.3064 0.76272261
0.34 0.308 0.76272261
0.34048641 0.31004292 0.76381379
0.34097421 0.31209168 0.76490808
0.34146342 0.31414634 0.76600552
0.34097421 0.31530085 0.76490808
0.34097421 0.31690544 0.76490808
0.34097421 0.31851003 0.76490808
0.34048641 0.31965664 0.76381379
0.34048641 0.32125893 0.76381379
0.34097421 0.32332379 0.76490808
0.34097421 0.32492837 0.76490808
0.34146342 0.32700142 0.76600552
0.34146342 0.32860833 0.76600552
0.34146342 0.33021522 0.76600552
0.34146342 0.3318221 0.76600552
0.34097421 0.33295128 0.76490808
0.34048641 0.33407724 0.76381379
0.34048641 0.33567953 0.76381379
0.34048641 0.33728182 0.76381379
0.34048641 0.33888412 0.76381379
0.34048641 0.34048641 0.76381379
0.34048641 0.3420887 0.76381379
0.34097421 0.34418339 0.76490808
0.34146342 0.34628406 0.76600552
0.34146342 0.34789097 0.76600552
0.34146342 0.34949785 0.76600552
0.34097421 0.35060173 0.76490808
0.34097421 0.35220629 0.76490808
0.34146342 0.3543185 0.76600552
0.34244603 0.35694963 0.76820982
0.33774012 0.26497176 0.75410426
0.33774012 0.26655367 0.75410426
0.33726376 0.26775742 0.75304067
0.33726376 0.26933709 0.75304067
0.33678874 0.2705352 0.75198007
0.33678874 0.27211267 0.75198007
0.33678874 0.27369013 0.75198007
0.33678874 0.2752676 0.75198007
0.33631504 0.2764557 0.75092238
0.3358427 0.27764046 0.74986774
0.3358427 0.27921349 0.74986774
0.3358427 0.28078651 0.74986774
0.3358427 0.28235954 0.74986774
0.33631504 0.28433192 0.75092238
0.33631504 0.28590718 0.75092238
0.33678874 0.28788733 0.75198007
0.33726376 0.28987306 0.75304067
0.33726376 0.29145274 0.75304067
0.33774012 0.29344633 0.75410426
0.33821782 0.29544553 0.75517088
0.3386969 0.29745042 0.75624055
0.3386969 0.29903683 0.75624055
0.33965909 0.30147728 0.75838894
0.34014225 0.30349928 0.75946772
0.34062678 0.30552706 0.7605496
0.3411127 0.30756062 0.76163459
0.3416 0.3096 0.76272261
0.3416 0.31119999 0.76272261
0.3420887 0.3132475 0.76381379
0.3420887 0.31484979 0.76381379
0.3420887 0.31645209 0.76381379
0.3416 0.31760001 0.76272261
0.3416 0.31920001 0.76272261
0.3416 0.32080001 0.76272261
0.3420887 0.32286122 0.76381379
0.3425788 0.32492837 0.76490808
0.3430703 0.32700142 0.76600552
0.3430703 0.32860833 0.76600552
0.3430703 0.33021522 0.76600552
0.3425788 0.33134669 0.76490808
0.3420887 0.33247498 0.76381379
0.3420887 0.33407724 0.76381379
0.3416 0.33520001 0.76272261
0.3416 0.33680001 0.76272261
0.3416 0.33840001 0.76272261
0.3416 0.34 0.76272261
0.3420887 0.3420887 0.76381379
0.3425788 0.34418339 0.76490808
0.3430703 0.34628406 0.76600552
0.3425788 0.34739256 0.76490808
0.3425788 0.34899715 0.76490808
0.3425788 0.35060173 0.76490808
0.3425788 0.35220629 0.76490808
0.34028327 0.26572239 0.75624055
0.33932203 0.26655367 0.75410426
0.33932203 0.26813561 0.75410426
0.33884344 0.26933709 0.75304067
0.33836621 0.2705352 0.75198007
0.33836621 0.27211267 0.75198007
0.3378903 0.27330521 0.75092238
0.3378903 0.27488044 0.75092238
0.3378903 0.2764557 0.75092238
0.33741572 0.27764046 0.74986774
0.33694249 0.27882189 0.74881601
0.33694249 0.28039271 0.74881601
0.33741572 0.28235954 0.74986774
0.33741572 0.2839326 0.74986774
0.33741572 0.28550562 0.74986774
0.33741572 0.28707865 0.74986774
0.3378903 0.28905767 0.75092238
0.3378903 0.2906329 0.75092238
0.33836621 0.29261971 0.75198007
0.33836621 0.29419717 0.75198007
0.33884344 0.29619181 0.75304067
0.33884344 0.29777151 0.75304067
0.33932203 0.29977402 0.75410426
0.33980197 0.30178219 0.75517088
0.34028327 0.30379602 0.75624055
0.34125 0.30625001 0.75838894
0.34222221 0.30871794 0.7605496
0.34271041 0.31075606 0.76163459
0.3432 0.31279999 0.76272261
0.3432 0.31439999 0.76272261
0.3432 0.31600001 0.76272261
0.3432 0.31760001 0.76272261
0.3432 0.31920001 0.76272261
0.3432 0.32080001 0.76272261
0.34369099 0.32286122 0.76381379
0.34418339 0.32492837 0.76490808
0.34418339 0.32653296 0.76490808
0.34418339 0.32813755 0.76490808
0.34418339 0.32974213 0.76490808
0.34418339 0.33134669 0.76490808
0.34369099 0.33247498 0.76381379
0.34369099 0.33407724 0.76381379
0.3432 0.33520001 0.76272261
0.3432 0.33680001 0.76272261
0.3432 0.33840001 0.76272261
0.34369099 0.34048641 0.76381379
0.34418339 0.3425788 0.76490808
0.34467718 0.34467718 0.76600552
0.34467718 0.34628406 0.76600552
0.34467718 0.34789097 0.76600552
0.34517241 0.34999999 0.76710606
0.34467718 0.35110474 0.76600552
0.34186968 0.26572239 0.75624055
0.34138614 0.2669307 0.75517088
0.34090397 0.26813561 0.75410426
0.34042314 0.26933709 0.75304067
0.34042314 0.27091679 0.75304067
0.33994365 0.27211267 0.75198007
0.33946553 0.27330521 0.75092238
0.33946553 0.27488044 0.75092238
0.33946553 0.2764557 0.75092238
0.33898875 0.27764046 0.74986774
0.33851331 0.27882189 0.74881601
0.33851331 0.28039271 0.74881601
0.33898875 0.28235954 0.74986774
0.33898875 0.2839326 0.74986774
0.33898875 0.28550562 0.74986774
0.33946553 0.28748241 0.75092238
0.33946553 0.28905767 0.75092238
0.33994365 0.29104227 0.75198007
0.34042314 0.29303244 0.75304067
0.34042314 0.29461214 0.75304067
0.34042314 0.29619181 0.75304067
0.34090397 0.29819208 0.75410426
0.34138614 0.30019802 0.75517088
0.34138614 0.30178219 0.75517088
0.3423546 0.30422696 0.75731325
0.34284091 0.30625001 0.75838894
0.34381765 0.30871794 0.7605496
0.34381765 0.3103134 0.7605496
0.34381765 0.31190884 0.7605496
0.34430814 0.31395149 0.76163459
0.34430814 0.31554922 0.76163459
0.34430814 0.31714693 0.76163459
0.34430814 0.31874466 0.76163459
0.34430814 0.32034236 0.76163459
0.3448 0.3224 0.76272261
0.34529328 0.32446352 0.76381379
0.34578797 0.32653296 0.76490808
0.34529328 0.3276681 0.76381379
0.34529328 0.32927039 0.76381379
0.3448 0.33039999 0.76272261
0.34430814 0.3315264 0.76163459
0.34381765 0.33264956 0.7605496
0.34381765 0.33424503 0.7605496
0.34381765 0.33584046 0.7605496
0.34430814 0.33791727 0.76163459
0.3448 0.34 0.76272261
0.34529328 0.3420887 0.76381379
0.34628406 0.34467718 0.76600552
0.34678161 0.34678161 0.76710606
0.34878612 0.35040462 0.77154022
0.3497971 0.35304347 0.77377659
0.36185908 0.37025487 0.80045849
0.36185908 0.37193403 0.80045849
0.36294737 0.37473685 0.80286592
0.34394327 0.2660993 0.75731325
0.34297031 0.2669307 0.75517088
0.34248587 0.26813561 0.75410426
0.34248587 0.26971751 0.75410426
0.34200281 0.27091679 0.75304067
0.34152111 0.27211267 0.75198007
0.34104079 0.27330521 0.75092238
0.34104079 0.27488044 0.75092238
0.34056181 0.27606741 0.74986774
0.34008417 0.27725106 0.74881601
0.33960783 0.27843139 0.74776727
0.33960783 0.28 0.74776727
0.33960783 0.28156862 0.74776727
0.33960783 0.28313726 0.74776727
0.33960783 0.28470588 0.74776727
0.34008417 0.28667602 0.74881601
0.34008417 0.28824684 0.74881601
0.34008417 0.28981766 0.74881601
0.34056181 0.29179776 0.74986774
0.34056181 0.29337078 0.74986774
0.34056181 0.29494381 0.74986774
0.34104079 0.29693389 0.75092238
0.34104079 0.29850915 0.75092238
0.34104079 0.30008438 0.75092238
0.34152111 0.30208451 0.75198007
0.34200281 0.30409026 0.75304067
0.34248587 0.30610171 0.75410426
0.34248587 0.30768362 0.75410426
0.34248587 0.30926552 0.75410426
0.34297031 0.31128713 0.75517088
0.34297031 0.31287128 0.75517088
0.34297031 0.31445545 0.75517088
0.34200281 0.31514809 0.75304067
0.34104079 0.31583685 0.75092238
0.34248587 0.31875706 0.75410426
0.34541312 0.32307693 0.7605496
0.34639999 0.3256 0.76272261
0.34443182 0.3253409 0.75838894
0.34443182 0.3269318 0.75838894
0.34443182 0.32852274 0.75838894
0.34345609 0.32917848 0.75624055
0.34248587 0.3298305 0.75410426
0.34248587 0.33141243 0.75410426
0.34248587 0.33299434 0.75410426
0.34248587 0.33457628 0.75410426
0.34394327 0.33758864 0.75731325
0.34689558 0.3420887 0.76381379
0.3493948 0.34616715 0.76931673
0.36408409 0.36912912 0.80166042
0.36463159 0.37136841 0.80286592
0.36408409 0.37249249 0.80166042
0.36463159 0.37473685 0.80286592
0.34553191 0.2660993 0.75731325
0.3450425 0.26730877 0.75624055
0.34455445 0.26851484 0.75517088
0.34406778 0.26971751 0.75410426
0.34358251 0.27091679 0.75304067
0.34309858 0.27211267 0.75198007
0.34261602 0.27330521 0.75092238
0.34213483 0.27449438 0.74986774
0.34165499 0.27568021 0.74881601
0.34117648 0.27686274 0.74776727
0.34022346 0.27765363 0.74567854
0.34069932 0.2796084 0.74672145
0.34069932 0.28117484 0.74672145
0.34069932 0.28274125 0.74672145
0.34069932 0.28430769 0.74672145
0.34117648 0.28627452 0.74776727
0.34117648 0.28784314 0.74776727
0.34117648 0.28941175 0.74776727
0.34165499 0.29138851 0.74881601
0.34165499 0.29295933 0.74881601
0.34213483 0.29494381 0.74986774
0.34213483 0.29651687 0.74986774
0.34261602 0.29850915 0.75092238
0.34261602 0.30008438 0.75092238
0.34309858 0.30208451 0.75198007
0.34406778 0.30451977 0.75410426
0.34455445 0.30653465 0.75517088
0.34455445 0.30811882 0.75517088
0.34455445 0.30970296 0.75517088
0.34455445 0.31128713 0.75517088
0.34455445 0.31287128 0.75517088
0.3450425 0.31490085 0.75624055
0.34406778 0.31559321 0.75410426
0.34261602 0.31583685 0.75092238
0.34455445 0.31920791 0.75517088
0.34700856 0.32307693 0.7605496
0.34849787 0.32606581 0.76381379
0.34700856 0.32626781 0.7605496
0.34750357 0.32833096 0.76163459
0.34700856 0.32945868 0.7605496
0.34602273 0.33011365 0.75838894
0.34455445 0.33029702 0.75517088
0.34455445 0.3318812 0.75517088
0.34406778 0.33299434 0.75410426
0.34406778 0.33457628 0.75410426
0.34553191 0.33758864 0.75731325
0.36142433 0.35976261 0.79214513
0.3635821 0.3635821 0.79687434
0.36631578 0.368 0.80286592
0.36686748 0.37024096 0.80407506
0.36686748 0.37192771 0.80407506
0.36686748 0.37361446 0.80407506
0.36742082 0.37586728 0.80528784
0.34761363 0.26647729 0.75838894
0.34712055 0.26768795 0.75731325
0.34712055 0.26927659 0.75731325
0.34712055 0.27086526 0.75731325
0.3466289 0.27206799 0.75624055
0.34564972 0.27288136 0.75410426
0.34516221 0.27407616 0.75304067
0.34467605 0.2752676 0.75198007
0.34419128 0.2764557 0.75092238
0.34370786 0.27764046 0.74986774
0.3427451 0.27843139 0.74776727
0.3427451 0.28 0.74776727
0.3427451 0.28156862 0.74776727
0.34322581 0.28353435 0.74881601
0.34322581 0.2851052 0.74881601
0.34322581 0.28667602 0.74881601
0.34322581 0.28824684 0.74881601
0.34322581 0.28981766 0.74881601
0.34322581 0.29138851 0.74881601
0.34322581 0.29295933 0.74881601
0.34370786 0.29494381 0.74986774
0.34370786 0.29651687 0.74986774
0.34419128 0.29850915 0.75092238
0.34419128 0.30008438 0.75092238
0.34467605 0.30208451 0.75198007
0.34516221 0.30409026 0.75304067
0.34613863 0.30653465 0.75517088
0.3466289 0.30855525 0.75624055
0.3466289 0.31014165 0.75624055
0.34712055 0.31217021 0.75731325
0.34810811 0.31465149 0.75946772
0.34810811 0.31624466 0.75946772
0.34810811 0.31783783 0.75946772
0.36201182 0.35538462 0.78980154
0.36416668 0.35916665 0.79450274
0.36634731 0.36299402 0.7992602
0.36744744 0.36576578 0.80166042
0.3685542 0.3685542 0.80407506
0.3685542 0.37024096 0.80407506
0.3685542 0.37192771 0.80407506
0.3685542 0.37361446 0.80407506
0.3685542 0.37530121 0.80407506
0.34821531 0.26572239 0.75624055
0.34772277 0.2669307 0.75517088
0.34772277 0.26851484 0.75517088
0.34772277 0.27009901 0.75517088
0.34723163 0.27129942 0.75410426
0.34674188 0.27249646 0.75304067
0.34625351 0.27369013 0.75198007
0.34625351 0.2752676 0.75198007
0.34576651 0.2764557 0.75092238
0.34479663 0.27725106 0.74881601
0.34383217 0.27804196 0.74672145
0.34383217 0.2796084 0.74672145
0.34383217 0.28117484 0.74672145
0.34383217 0.28274125 0.74672145
0.34383217 0.28430769 0.74672145
0.34383217 0.28587413 0.74672145
0.34383217 0.28744057 0.74672145
0.34431371 0.28941175 0.74776727
0.34431371 0.2909804 0.74776727
0.34431371 0.29254901 0.74776727
0.34431371 0.29411766 0.74776727
0.34479663 0.29610097 0.74881601
0.34479663 0.29767179 0.74881601
0.34479663 0.29924265 0.74881601
0.34528089 0.30123594 0.74986774
0.34625351 0.30366197 0.75198007
0.34723163 0.30610171 0.75410426
0.34821531 0.30855525 0.75624055
0.34870923 0.31058156 0.75731325
0.34970129 0.31305832 0.75946772
0.35019943 0.31509972 0.7605496
0.35120001 0.31760001 0.76272261
0.36474776 0.35643917 0.79214513
0.36747384 0.36077729 0.79806548
0.36857572 0.36353824 0.80045849
0.36912912 0.36576578 0.80166042
0.37024096 0.3685542 0.80407506
0.37024096 0.37024096 0.80407506
0.37024096 0.37192771 0.80407506
0.37024096 0.37361446 0.80407506
0.37024096 0.37530121 0.80407506
0.34980169 0.26572239 0.75624055
0.34980169 0.26730877 0.75624055
0.34980169 0.26889518 0.75624055
0.34980169 0.27048159 0.75624055
0.34980169 0.27206799 0.75624055
0.34930694 0.27326733 0.75517088
0.34881356 0.27446327 0.75410426
0.34881356 0.2760452 0.75410426
0.34832159 0.27723554 0.75304067
0.34734178 0.27803093 0.75092238
0.34636745 0.27882189 0.74881601
0.34636745 0.28039271 0.74881601
0.34636745 0.28196353 0.74881601
0.34636745 0.28353435 0.74881601
0.34636745 0.2851052 0.74881601
0.34588236 0.28627452 0.74776727
0.34588236 0.28784314 0.74776727
0.34588236 0.28941175 0.74776727
0.34588236 0.2909804 0.74776727
0.34588236 0.29254901 0.74776727
0.34588236 0.29411766 0.74776727
0.34588236 0.29568627 0.74776727
0.34588236 0.29725489 0.74776727
0.34588236 0.29882354 0.74776727
0.34588236 0.30039215 0.74776727
0.34636745 0.30238429 0.74881601
0.34685394 0.30438203 0.74986774
0.34734178 0.30638537 0.75092238
0.34783098 0.30839437 0.75198007
0.34832159 0.31040904 0.75304067
0.35029787 0.31375888 0.75731325
0.35229671 0.31714693 0.76163459
0.36695394 0.35696879 0.79332221
0.36804768 0.35970193 0.79568678
0.36914799 0.36245143 0.79806548
0.36970061 0.36467066 0.7992602
0.37136841 0.368 0.80286592
0.37136841 0.36968422 0.80286592
0.37136841 0.37136841 0.80286592
0.37136841 0.37305263 0.80286592
0.37136841 0.37473685 0.80286592
0.35188651 0.2660993 0.75731325
0.3513881 0.26730877 0.75624055
0.3513881 0.26889518 0.75624055
0.3513881 0.27048159 0.75624055
0.3513881 0.27206799 0.75624055
0.35089108 0.27326733 0.75517088
0.35039547 0.27446327 0.75410426
0.35039547 0.2760452 0.75410426
0.35039547 0.27762711 0.75410426
0.34891701 0.27803093 0.75092238
0.34842697 0.27921349 0.74986774
0.3479383 0.28039271 0.74881601
0.3479383 0.28196353 0.74881601
0.3479383 0.28353435 0.74881601
0.3479383 0.2851052 0.74881601
0.34745097 0.28627452 0.74776727
0.34745097 0.28784314 0.74776727
0.34745097 0.28941175 0.74776727
0.34745097 0.2909804 0.74776727
0.34745097 0.29254901 0.74776727
0.34745097 0.29411766 0.74776727
0.3479383 0.29610097 0.74881601
0.34745097 0.29725489 0.74776727
0.34745097 0.29882354 0.74776727
0.34745097 0.30039215 0.74776727
0.3479383 0.30238429 0.74881601
0.34842697 0.30438203 0.74986774
0.34891701 0.30638537 0.75092238
0.34990126 0.30882934 0.75304067
0.35089108 0.31128713 0.75517088
0.35339031 0.31509972 0.7605496
0.35490701 0.31805438 0.76381379
0.36807123 0.35643917 0.79214513
0.36916667 0.35916665 0.79450274
0.37026864 0.36191046 0.79687434
0.37082213 0.36412555 0.79806548
0.37249249 0.36744744 0.80166042
0.37249249 0.36912912 0.80166042
0.37249249 0.37081081 0.80166042
0.37249249 0.37249249 0.80166042
0.37305263 0.37473685 0.80286592
0.3529745 0.26572239 0.75624055
0.3529745 0.26730877 0.75624055
0.3529745 0.26889518 0.75624055
0.3529745 0.27048159 0.75624055
0.3529745 0.27206799 0.75624055
0.35247526 0.27326733 0.75517088
0.35148096 0.27407616 0.75304067
0.35148096 0.27565587 0.75304067
0.35148096 0.27723554 0.75304067
0.35049227 0.27803093 0.75092238
0.34950912 0.27882189 0.74881601
0.34950912 0.28039271 0.74881601
0.34950912 0.28196353 0.74881601
0.34950912 0.28353435 0.74881601
0.34950912 0.2851052 0.74881601
0.34901962 0.28627452 0.74776727
0.34901962 0.28784314 0.74776727
0.34901962 0.28941175 0.74776727
0.34901962 0.2909804 0.74776727
0.34901962 0.29254901 0.74776727
0.34901962 0.29411766 0.74776727
0.34901962 0.29568627 0.74776727
0.34901962 0.29725489 0.74776727
0.34853145 0.29840559 0.74672145
0.34853145 0.29997203 0.74672145
0.34901962 0.3019608 0.74776727
0.34999999 0.30438203 0.74986774
0.34999999 0.30595505 0.74986774
0.35049227 0.30796063 0.75092238
0.35148096 0.31040904 0.75304067
0.35397726 0.31420454 0.75838894
0.35600001 0.31760001 0.76272261
0.35753229 0.3205739 0.76600552
0.36863905 0.35538462 0.78980154
0.36973295 0.35810089 0.79214513
0.37028232 0.36029717 0.79332221
0.37138599 0.36304024 0.79568678
0.37361318 0.36689654 0.80045849
0.37361318 0.36857572 0.80045849
0.37417418 0.37081081 0.80166042
0.37417418 0.37249249 0.80166042
0.37473685 0.37473685 0.80286592
0.35506383 0.2660993 0.75731325
0.35456091 0.26730877 0.75624055
0.35506383 0.26927659 0.75731325
0.35456091 0.27048159 0.75624055
0.35456091 0.27206799 0.75624055
0.3540594 0.27326733 0.75517088
0.35355932 0.27446327 0.75410426
0.35306066 0.27565587 0.75304067
0.35256338 0.27684507 0.75198007
0.3520675 0.27803093 0.75092238
0.35107994 0.27882189 0.74881601
0.35107994 0.28039271 0.74881601
0.35107994 0.28196353 0.74881601
0.35107994 0.28353435 0.74881601
0.35107994 0.2851052 0.74881601
0.35058823 0.28627452 0.74776727
0.35058823 0.28784314 0.74776727
0.35058823 0.28941175 0.74776727
0.35058823 0.2909804 0.74776727
0.35058823 0.29254901 0.74776727
0.35058823 0.29411766 0.74776727
0.35058823 0.29568627 0.74776727
0.35058823 0.29725489 0.74776727
0.35009789 0.29840559 0.74672145
0.35009789 0.29997203 0.74672145
0.35058823 0.3019608 0.74776727
0.35107994 0.30395511 0.74881601
0.35157302 0.30595505 0.74986774
0.35256338 0.30997184 0.75198007
0.35607398 0.31465149 0.75946772
0.35862464 0.31851003 0.76490808
0.3725 0.35916665 0.79450274
0.37361193 0.36191046 0.79687434
0.37473053 0.36467066 0.7992602
0.37585586 0.36744744 0.80166042
0.37585586 0.36912912 0.80166042
0.37585586 0.37081081 0.80166042
0.37585586 0.37249249 0.80166042
0.37585586 0.37417418 0.80166042
0.35665247 0.2660993 0.75731325
0.35614732 0.26730877 0.75624055
0.35614732 0.26889518 0.75624055
0.35564357 0.27009901 0.75517088
0.35564357 0.27168316 0.75517088
0.35514125 0.27288136 0.75410426
0.35464033 0.27407616 0.75304067
0.35464033 0.27565587 0.75304067
0.35414085 0.27684507 0.75198007
0.35314608 0.27764046 0.74986774
0.35265076 0.27882189 0.74881601
0.35215688 0.28 0.74776727
0.35265076 0.28196353 0.74881601
0.35265076 0.28353435 0.74881601
0.35265076 0.2851052 0.74881601
0.35215688 0.28627452 0.74776727
0.35215688 0.28784314 0.74776727
0.35215688 0.28941175 0.74776727
0.35215688 0.2909804 0.74776727
0.35215688 0.29254901 0.74776727
0.35215688 0.29411766 0.74776727
0.35215688 0.29568627 0.74776727
0.35215688 0.29725489 0.74776727
0.35215688 0.29882354 0.74776727
0.35215688 0.30039215 0.74776727
0.35215688 0.3019608 0.74776727
0.35265076 0.30395511 0.74881601
0.35265076 0.30552596 0.74881601
0.35265076 0.30709678 0.74881601
0.35314608 0.30910113 0.74986774
0.35414085 0.31154931 0.75198007
0.35564357 0.31445545 0.75517088
0.37195265 0.35704142 0.78980154
0.3725037 0.35922962 0.79097158
0.37361071 0.36196136 0.79332221
0.37528357 0.36525372 0.79687434
0.37640718 0.36802396 0.7992602
0.37640718 0.36970061 0.7992602
0.37640718 0.37137726 0.7992602
0.37697151 0.37361318 0.80045849
0.35824114 0.2660993 0.75731325
0.35824114 0.26768795 0.75731325
0.3577337 0.26889518 0.75624055
0.3577337 0.27048159 0.75624055
0.35722771 0.27168316 0.75517088
0.35672316 0.27288136 0.75410426
0.35622004 0.27407616 0.75304067
0.35571831 0.2752676 0.75198007
0.35521799 0.2764557 0.75092238
0.35422161 0.27725106 0.74881601
0.35372549 0.27843139 0.74776727
0.35372549 0.28 0.74776727
0.35372549 0.28156862 0.74776727
0.35372549 0.28313726 0.74776727
0.35422161 0.2851052 0.74881601
0.35372549 0.28627452 0.74776727
0.35372549 0.28784314 0.74776727
0.35372549 0.28941175 0.74776727
0.35422161 0.29138851 0.74881601
0.35422161 0.29295933 0.74881601
0.35422161 0.29453015 0.74881601
0.3547191 0.29651687 0.74986774
0.35422161 0.29767179 0.74881601
0.35422161 0.29924265 0.74881601
0.3547191 0.30123594 0.74986774
0.35521799 0.30323488 0.75092238
0.35521799 0.30481014 0.75092238
0.35571831 0.30681691 0.75198007
0.35571831 0.30839437 0.75198007
0.35622004 0.31040904 0.75304067
0.35824114 0.31375888 0.75731325
0.35977209 0.31669515 0.7605496
0.37808383 0.37137726 0.7992602
0.37865067 0.37361318 0.80045849
0.3593201 0.26730877 0.75624055
0.3593201 0.26889518 0.75624055
0.35881189 0.27009901 0.75517088
0.35881189 0.27168316 0.75517088
0.3583051 0.27288136 0.75410426
0.35779971 0.27407616 0.75304067
0.35729578 0.2752676 0.75198007
0.35679325 0.2764557 0.75092238
0.35579243 0.27725106 0.74881601
0.35529411 0.27843139 0.74776727
0.35529411 0.28 0.74776727
0.35579243 0.28196353 0.74881601
0.35579243 0.28353435 0.74881601
0.35579243 0.2851052 0.74881601
0.35579243 0.28667602 0.74881601
0.35579243 0.28824684 0.74881601
0.35579243 0.28981766 0.74881601
0.35579243 0.29138851 0.74881601
0.35579243 0.29295933 0.74881601
0.35579243 0.29453015 0.74881601
0.35629213 0.29651687 0.74986774
0.35579243 0.29767179 0.74881601
0.35579243 0.29924265 0.74881601
0.35579243 0.30081347 0.74881601
0.35629213 0.302809 0.74986774
0.35679325 0.30481014 0.75092238
0.35679325 0.30638537 0.75092238
0.35679325 0.30796063 0.75092238
0.35679325 0.30953586 0.75092238
0.35779971 0.31198871 0.75304067
0.3583051 0.31401131 0.75410426
0.3583051 0.31559321 0.75410426
0.35779971 0.31672779 0.75304067
0.35779971 0.31988716 0.75304067
0.35982978 0.32329077 0.75731325
0.35982978 0.32487944 0.75731325
0.35982978 0.32646808 0.75731325
0.35982978 0.32805672 0.75731325
0.3593201 0.32917848 0.75624055
0.3593201 0.33076486 0.75624055
0.35881189 0.3318812 0.75517088
0.3583051 0.33299434 0.75410426
0.36039603 0.27009901 0.75517088
0.359887 0.27129942 0.75410426
0.35937941 0.27249646 0.75304067
0.35887325 0.27369013 0.75198007
0.35836849 0.27488044 0.75092238
0.35786515 0.27606741 0.74986774
0.35686275 0.27686274 0.74776727
0.35686275 0.27843139 0.74776727
0.35686275 0.28 0.74776727
0.35686275 0.28156862 0.74776727
0.35736325 0.28353435 0.74881601
0.35736325 0.2851052 0.74881601
0.35736325 0.28667602 0.74881601
0.35686275 0.28784314 0.74776727
0.35736325 0.28981766 0.74881601
0.35736325 0.29138851 0.74881601
0.35736325 0.29295933 0.74881601
0.35736325 0.29453015 0.74881601
0.35736325 0.29610097 0.74881601
0.35736325 0.29767179 0.74881601
0.35736325 0.29924265 0.74881601
0.35736325 0.30081347 0.74881601
0.35786515 0.302809 0.74986774
0.35786515 0.30438203 0.74986774
0.35786515 0.30595505 0.74986774
0.35786515 0.30752808 0.74986774
0.35786515 0.30910113 0.74986774
0.35836849 0.31111112 0.75092238
0.35887325 0.31312677 0.75198007
0.35887325 0.31470424 0.75198007
0.35836849 0.31583685 0.75092238
0.35836849 0.31741211 0.75092238
0.35887325 0.31943661 0.75198007
0.35937941 0.32146686 0.75304067
0.359887 0.32350284 0.75410426
0.359887 0.32508475 0.75410426
0.359887 0.32666665 0.75410426
0.359887 0.32824859 0.75410426
0.359887 0.3298305 0.75410426
0.359887 0.33141243 0.75410426
0.35937941 0.33252469 0.75304067
0.3619802 0.2669307 0.75517088
0.3619802 0.26851484 0.75517088
0.36146894 0.26971751 0.75410426
0.36146894 0.27129942 0.75410426
0.36095908 0.27249646 0.75304067
0.35994375 0.27330521 0.75092238
0.35943821 0.27449438 0.74986774
0.35893407 0.27568021 0.74881601
0.35843137 0.27686274 0.74776727
0.35793006 0.27804196 0.74672145
0.35793006 0.2796084 0.74672145
0.35793006 0.28117484 0.74672145
0.35843137 0.28313726 0.74776727
0.35843137 0.28470588 0.74776727
0.35843137 0.28627452 0.74776727
0.35843137 0.28784314 0.74776727
0.35843137 0.28941175 0.74776727
0.35843137 0.2909804 0.74776727
0.35843137 0.29254901 0.74776727
0.35843137 0.29411766 0.74776727
0.35843137 0.29568627 0.74776727
0.35843137 0.29725489 0.74776727
0.35843137 0.29882354 0.74776727
0.35843137 0.30039215 0.74776727
0.35843137 0.3019608 0.74776727
0.35843137 0.30352941 0.74776727
0.35893407 0.30552596 0.74881601
0.35893407 0.30709678 0.74881601
0.35943821 0.30910113 0.74986774
0.35994375 0.31111112 0.75092238
0.36045071 0.31312677 0.75198007
0.36095908 0.31514809 0.75304067
0.36095908 0.31672779 0.75304067
0.36095908 0.31830749 0.75304067
0.36146894 0.32033899 0.75410426
0.3630071 0.32329077 0.75731325
0.3630071 0.32487944 0.75731325
0.3630071 0.32646808 0.75731325
0.3630071 0.32805672 0.75731325
0.36249292 0.32917848 0.75624055
0.3630071 0.33123404 0.75731325
0.36249292 0.33235127 0.75624055
0.3619802 0.33346534 0.75517088
0.36146894 0.33457628 0.75410426
0.36146894 0.33615819 0.75410426
0.36305085 0.26655367 0.75410426
0.36253878 0.26775742 0.75304067
0.36253878 0.26933709 0.75304067
0.36253878 0.27091679 0.75304067
0.36202818 0.27211267 0.75198007
0.36151898 0.27330521 0.75092238
0.3605049 0.27410939 0.74881601
0.36000001 0.27529413 0.74776727
0.3594965 0.27647552 0.74672145
0.3594965 0.27804196 0.74672145
0.3594965 0.2796084 0.74672145
0.3594965 0.28117484 0.74672145
0.36000001 0.28313726 0.74776727
0.36000001 0.28470588 0.74776727
0.36000001 0.28627452 0.74776727
0.36000001 0.28784314 0.74776727
0.3605049 0.28981766 0.74881601
0.3605049 0.29138851 0.74881601
0.3605049 0.29295933 0.74881601
0.36101124 0.29494381 0.74986774
0.36101124 0.29651687 0.74986774
0.36101124 0.29808989 0.74986774
0.36101124 0.29966292 0.74986774
0.36101124 0.30123594 0.74986774
0.36151898 0.30323488 0.75092238
0.36151898 0.30481014 0.75092238
0.36202818 0.30681691 0.75198007
0.36202818 0.30839437 0.75198007
0.36202818 0.30997184 0.75198007
0.36253878 0.31198871 0.75304067
0.36253878 0.31356841 0.75304067
0.36202818 0.31470424 0.75198007
0.36202818 0.31628168 0.75198007
0.36202818 0.31785914 0.75198007
0.36253878 0.31988716 0.75304067
0.36305085 0.3219209 0.75410426
0.36305085 0.32350284 0.75410426
0.36305085 0.32508475 0.75410426
0.36305085 0.32666665 0.75410426
0.36305085 0.32824859 0.75410426
0.36305085 0.3298305 0.75410426
0.36253878 0.33094499 0.75304067
0.36253878 0.33252469 0.75304067
0.36253878 0.33410436 0.75304067
0.36253878 0.33568406 0.75304067
0.38710845 0.37530121 0.80407506
0.36514851 0.26534653 0.75517088
0.36514851 0.2669307 0.75517088
0.36463276 0.26813561 0.75410426
0.36463276 0.26971751 0.75410426
0.36411849 0.27091679 0.75304067
0.36411849 0.27249646 0.75304067
0.36360565 0.27369013 0.75198007
0.36309424 0.27488044 0.75092238
0.36207575 0.27568021 0.74881601
0.36156863 0.27686274 0.74776727
0.36156863 0.27843139 0.74776727
0.36156863 0.28 0.74776727
0.36156863 0.28156862 0.74776727
0.36156863 0.28313726 0.74776727
0.36156863 0.28470588 0.74776727
0.36156863 0.28627452 0.74776727
0.36156863 0.28784314 0.74776727
0.36156863 0.28941175 0.74776727
0.36207575 0.29138851 0.74881601
0.36207575 0.29295933 0.74881601
0.36156863 0.29411766 0.74776727
0.36156863 0.29568627 0.74776727
0.36156863 0.29725489 0.74776727
0.36156863 0.29882354 0.74776727
0.36156863 0.30039215 0.74776727
0.36156863 0.3019608 0.74776727
0.36156863 0.30352941 0.74776727
0.36207575 0.30552596 0.74881601
0.36258426 0.30752808 0.74986774
0.36258426 0.30910113 0.74986774
0.36309424 0.31111112 0.75092238
0.36309424 0.31268635 0.75092238
0.36309424 0.31426162 0.75092238
0.36309424 0.31583685 0.75092238
0.36309424 0.31741211 0.75092238
0.36360565 0.31943661 0.75198007
0.36463276 0.3219209 0.75410426
0.36514851 0.32396039 0.75517088
0.36514851 0.32554457 0.75517088
0.36514851 0.32712871 0.75517088
0.36514851 0.32871288 0.75517088
0.36566573 0.33076486 0.75624055
0.36514851 0.3318812 0.75517088
0.36463276 0.33299434 0.75410426
0.36463276 0.33457628 0.75410426
0.36514851 0.33663365 0.75517088
0.36618438 0.33917731 0.75731325
0.36774927 0.34381765 0.7605496
0.38704649 0.37361318 0.80045849
0.36569816 0.26459801 0.75304067
0.36569816 0.26617771 0.75304067
0.36569816 0.26775742 0.75304067
0.36518309 0.26895773 0.75198007
0.36518309 0.2705352 0.75198007
0.36466947 0.27172995 0.75092238
0.36415729 0.27292135 0.74986774
0.36364657 0.27410939 0.74881601
0.36262938 0.27490908 0.74672145
0.36212289 0.2760894 0.74567854
0.36161786 0.27726638 0.7446385
0.36161786 0.27882844 0.7446385
0.36161786 0.28039053 0.7446385
0.36161786 0.28195259 0.7446385
0.36161786 0.28351465 0.7446385
0.36212289 0.28547487 0.74567854
0.36212289 0.2870391 0.74567854
0.36262938 0.28900698 0.74672145
0.36313725 0.2909804 0.74776727
0.36313725 0.29254901 0.74776727
0.36313725 0.29411766 0.74776727
0.36313725 0.29568627 0.74776727
0.36313725 0.29725489 0.74776727
0.36364657 0.29924265 0.74881601
0.36364657 0.30081347 0.74881601
0.36364657 0.30238429 0.74881601
0.36415729 0.30438203 0.74986774
0.36466947 0.30638537 0.75092238
0.36518309 0.30839437 0.75198007
0.36518309 0.30997184 0.75198007
0.36518309 0.31154931 0.75198007
0.36518309 0.31312677 0.75198007
0.36518309 0.31470424 0.75198007
0.36518309 0.31628168 0.75198007
0.36518309 0.31785914 0.75198007
0.36569816 0.31988716 0.75304067
0.36673269 0.32237625 0.75517088
0.36673269 0.32396039 0.75517088
0.36725211 0.32600567 0.75624055
0.36725211 0.32759207 0.75624055
0.36673269 0.32871288 0.75517088
0.36725211 0.33076486 0.75624055
0.36673269 0.3318812 0.75517088
0.36673269 0.33346534 0.75517088
0.36621469 0.33457628 0.75410426
0.36673269 0.33663365 0.75517088
0.36725211 0.3386969 0.75624055
0.36829546 0.34125 0.75838894
0.36829546 0.34284091 0.75838894
0.36829546 0.34443182 0.75838894
0.36881936 0.34651494 0.75946772
0.36881936 0.34810811 0.75946772
0.3677966 0.26497176 0.75410426
0.36831683 0.2669307 0.75517088
0.3677966 0.26813561 0.75410426
0.36727786 0.26933709 0.75304067
0.36676055 0.2705352 0.75198007
0.36676055 0.27211267 0.75198007
0.36624473 0.27330521 0.75092238
0.36573035 0.27449438 0.74986774
0.36521739 0.27568021 0.74881601
0.36470589 0.27686274 0.74776727
0.36470589 0.27843139 0.74776727
0.36419579 0.2796084 0.74672145
0.36419579 0.28117484 0.74672145
0.36419579 0.28274125 0.74672145
0.36470589 0.28470588 0.74776727
0.36470589 0.28627452 0.74776727
0.36470589 0.28784314 0.74776727
0.36470589 0.28941175 0.74776727
0.36521739 0.29138851 0.74881601
0.36573035 0.29337078 0.74986774
0.36573035 0.29494381 0.74986774
0.36521739 0.29610097 0.74881601
0.36521739 0.29767179 0.74881601
0.36573035 0.29966292 0.74986774
0.36573035 0.30123594 0.74986774
0.36573035 0.302809 0.74986774
0.36624473 0.30481014 0.75092238
0.36624473 0.30638537 0.75092238
0.36676055 0.30839437 0.75198007
0.36676055 0.30997184 0.75198007
0.36676055 0.31154931 0.75198007
0.36676055 0.31312677 0.75198007
0.36676055 0.31470424 0.75198007
0.36676055 0.31628168 0.75198007
0.36676055 0.31785914 0.75198007
0.36727786 0.31988716 0.75304067
0.3677966 0.3219209 0.75410426
0.36831683 0.32396039 0.75517088
0.36831683 0.32554457 0.75517088
0.36883852 0.32759207 0.75624055
0.36831683 0.32871288 0.75517088
0.36883852 0.33076486 0.75624055
0.36831683 0.3318812 0.75517088
0.36831683 0.33346534 0.75517088
0.3677966 0.33457628 0.75410426
0.36831683 0.33663365 0.75517088
0.36883852 0.3386969 0.75624055
0.36988637 0.34125 0.75838894
0.37041253 0.3433286 0.75946772
0.37041253 0.34492177 0.75946772
0.37094018 0.34700856 0.7605496
0.37094018 0.34860399 0.7605496
0.38982037 0.37305388 0.7992602
0.36937854 0.26497176 0.75410426
0.369901 0.2669307 0.75517088
0.36937854 0.26813561 0.75410426
0.36885753 0.26933709 0.75304067
0.36885753 0.27091679 0.75304067
0.36833802 0.27211267 0.75198007
0.36781996 0.27330521 0.75092238
0.36730337 0.27449438 0.74986774
0.36678821 0.27568021 0.74881601
0.36627451 0.27686274 0.74776727
0.36627451 0.27843139 0.74776727
0.36576223 0.2796084 0.74672145
0.36576223 0.28117484 0.74672145
0.36576223 0.28274125 0.74672145
0.36576223 0.28430769 0.74672145
0.36576223 0.28587413 0.74672145
0.36576223 0.28744057 0.74672145
0.36627451 0.28941175 0.74776727
0.36678821 0.29138851 0.74881601
0.36678821 0.29295933 0.74881601
0.36678821 0.29453015 0.74881601
0.36678821 0.29610097 0.74881601
0.36678821 0.29767179 0.74881601
0.36678821 0.29924265 0.74881601
0.36678821 0.30081347 0.74881601
0.36730337 0.302809 0.74986774
0.36730337 0.30438203 0.74986774
0.36781996 0.30638537 0.75092238
0.36833802 0.30839437 0.75198007
0.36833802 0.30997184 0.75198007
0.36833802 0.31154931 0.75198007
0.36833802 0.31312677 0.75198007
0.36833802 0.31470424 0.75198007
0.36833802 0.31628168 0.75198007
0.36833802 0.31785914 0.75198007
0.36885753 0.31988716 0.75304067
0.36937854 0.3219209 0.75410426
0.369901 0.32396039 0.75517088
0.369901 0.32554457 0.75517088
0.369901 0.32712871 0.75517088
0.369901 0.32871288 0.75517088
0.37042493 0.33076486 0.75624055
0.369901 0.3318812 0.75517088
0.369901 0.33346534 0.75517088
0.36937854 0.33457628 0.75410426
0.369901 0.33663365 0.75517088
0.37042493 0.3386969 0.75624055
0.37147728 0.34125 0.75838894
0.37147728 0.34284091 0.75838894
0.3720057 0.34492177 0.75946772
0.3720057 0.34651494 0.75946772
0.37253562 0.34860399 0.7605496
0.39149702 0.37305388 0.7992602
0.37148514 0.26534653 0.75517088
0.37201133 0.26730877 0.75624055
0.37148514 0.26851484 0.75517088
0.37096044 0.26971751 0.75410426
0.37043723 0.27091679 0.75304067
0.37043723 0.27249646 0.75304067
0.36939523 0.27330521 0.75092238
0.3688764 0.27449438 0.74986774
0.36835906 0.27568021 0.74881601
0.36784315 0.27686274 0.74776727
0.36732867 0.27804196 0.74672145
0.36732867 0.2796084 0.74672145
0.36732867 0.28117484 0.74672145
0.36732867 0.28274125 0.74672145
0.36732867 0.28430769 0.74672145
0.36784315 0.28627452 0.74776727
0.36784315 0.28784314 0.74776727
0.36784315 0.28941175 0.74776727
0.36835906 0.29138851 0.74881601
0.3688764 0.29337078 0.74986774
0.3688764 0.29494381 0.74986774
0.3688764 0.29651687 0.74986774
0.3688764 0.29808989 0.74986774
0.3688764 0.29966292 0.74986774
0.3688764 0.30123594 0.74986774
0.36939523 0.30323488 0.75092238
0.36939523 0.30481014 0.75092238
0.36939523 0.30638537 0.75092238
0.36991549 0.30839437 0.75198007
0.36991549 0.30997184 0.75198007
0.36991549 0.31154931 0.75198007
0.36991549 0.31312677 0.75198007
0.36991549 0.31470424 0.75198007
0.36991549 0.31628168 0.75198007
0.36991549 0.31785914 0.75198007
0.36991549 0.31943661 0.75198007
0.37096044 0.3219209 0.75410426
0.37148514 0.32396039 0.75517088
0.37148514 0.32554457 0.75517088
0.37148514 0.32712871 0.75517088
0.37148514 0.32871288 0.75517088
0.37148514 0.33029702 0.75517088
0.37148514 0.3318812 0.75517088
0.37096044 0.33299434 0.75410426
0.37096044 0.33457628 0.75410426
0.37096044 0.33615819 0.75410426
0.37201133 0.3386969 0.75624055
0.37253901 0.34076595 0.75731325
0.37306818 0.34284091 0.75838894
0.37306818 0.34443182 0.75838894
0.37359887 0.34651494 0.75946772
0.39199999 0.37026864 0.79687434
0.39376312 0.37361318 0.80045849
0.37359774 0.26572239 0.75624055
0.37359774 0.26730877 0.75624055
0.37306932 0.26851484 0.75517088
0.37201694 0.26933709 0.75304067
0.37201694 0.27091679 0.75304067
0.37149295 0.27211267 0.75198007
0.37097046 0.27330521 0.75092238
0.36992988 0.27410939 0.74881601
0.36941177 0.27529413 0.74776727
0.36889511 0.27647552 0.74672145
0.36889511 0.27804196 0.74672145
0.36837989 0.27921787 0.74567854
0.36837989 0.28078213 0.74567854
0.36837989 0.28234637 0.74567854
0.36837989 0.2839106 0.74567854
0.36889511 0.28587413 0.74672145
0.36889511 0.28744057 0.74672145
0.36941177 0.28941175 0.74776727
0.36992988 0.29138851 0.74881601
0.37044942 0.29337078 0.74986774
0.37044942 0.29494381 0.74986774
0.37044942 0.29651687 0.74986774
0.37044942 0.29808989 0.74986774
0.37044942 0.29966292 0.74986774
0.37044942 0.30123594 0.74986774
0.37097046 0.30323488 0.75092238
0.37097046 0.30481014 0.75092238
0.37149295 0.30681691 0.75198007
0.37149295 0.30839437 0.75198007
0.37149295 0.30997184 0.75198007
0.37149295 0.31154931 0.75198007
0.37097046 0.31268635 0.75092238
0.37097046 0.31426162 0.75092238
0.37097046 0.31583685 0.75092238
0.37097046 0.31741211 0.75092238
0.37149295 0.31943661 0.75198007
0.37254238 0.3219209 0.75410426
0.37254238 0.32350284 0.75410426
0.37306932 0.32554457 0.75517088
0.37306932 0.32712871 0.75517088
0.37254238 0.32824859 0.75410426
0.37306932 0.33029702 0.75517088
0.37254238 0.33141243 0.75410426
0.37254238 0.33299434 0.75410426
0.37254238 0.33457628 0.75410426
0.37306932 0.33663365 0.75517088
0.37359774 0.3386969 0.75624055
0.37412766 0.34076595 0.75731325
0.37519205 0.3433286 0.75946772
0.37572649 0.34541312 0.7605496
0.37626249 0.34750357 0.76163459
0.39367163 0.368597 0.79687434
0.39426008 0.37082213 0.79806548
0.39544228 0.37361318 0.80045849
0.37465346 0.26534653 0.75517088
0.37518415 0.26730877 0.75624055
0.37412429 0.26813561 0.75410426
0.37359661 0.26933709 0.75304067
0.37307042 0.2705352 0.75198007
0.37254572 0.27172995 0.75092238
0.37202248 0.27292135 0.74986774
0.37098038 0.27372548 0.74776727
0.37046155 0.27490908 0.74672145
0.37046155 0.27647552 0.74672145
0.36994413 0.27765363 0.74567854
0.36994413 0.27921787 0.74567854
0.36994413 0.28078213 0.74567854
0.36994413 0.28234637 0.74567854
0.36994413 0.2839106 0.74567854
0.37046155 0.28587413 0.74672145
0.37046155 0.28744057 0.74672145
0.37098038 0.28941175 0.74776727
0.3715007 0.29138851 0.74881601
0.37202248 0.29337078 0.74986774
0.37202248 0.29494381 0.74986774
0.3715007 0.29610097 0.74881601
0.37202248 0.29808989 0.74986774
0.37202248 0.29966292 0.74986774
0.37202248 0.30123594 0.74986774
0.37254572 0.30323488 0.75092238
0.37254572 0.30481014 0.75092238
0.37254572 0.30638537 0.75092238
0.37254572 0.30796063 0.75092238
0.37307042 0.30997184 0.75198007
0.37307042 0.31154931 0.75198007
0.37254572 0.31268635 0.75092238
0.37254572 0.31426162 0.75092238
0.37254572 0.31583685 0.75092238
0.37254572 0.31741211 0.75092238
0.37307042 0.31943661 0.75198007
0.37412429 0.3219209 0.75410426
0.37465346 0.32396039 0.75517088
0.37465346 0.32554457 0.75517088
0.37465346 0.32712871 0.75517088
0.37465346 0.32871288 0.75517088
0.37518415 0.33076486 0.75624055
0.37465346 0.3318812 0.75517088
0.37465346 0.33346534 0.75517088
0.37518415 0.33552408 0.75624055
0.3757163 0.33758864 0.75731325
0.37625 0.33965909 0.75838894
0.37732193 0.34222221 0.7605496
0.37786019 0.34430814 0.76163459
0.3784 0.34639999 0.76272261
0.39416668 0.36583334 0.79450274
0.39593422 0.36914799 0.79806548
0.39652693 0.37137726 0.7992602
0.39712143 0.37361318 0.80045849
0.37784091 0.26647729 0.75838894
0.37784091 0.26806819 0.75838894
0.37623763 0.26851484 0.75517088
0.37517631 0.26933709 0.75304067
0.37464789 0.2705352 0.75198007
0.37464789 0.27211267 0.75198007
0.37412095 0.27330521 0.75092238
0.37307152 0.27410939 0.74881601
0.37254903 0.27529413 0.74776727
0.37202796 0.27647552 0.74672145
0.37202796 0.27804196 0.74672145
0.37150839 0.27921787 0.74567854
0.37150839 0.28078213 0.74567854
0.37150839 0.28234637 0.74567854
0.37150839 0.2839106 0.74567854
0.37150839 0.28547487 0.74567854
0.37202796 0.28744057 0.74672145
0.37254903 0.28941175 0.74776727
0.37307152 0.29138851 0.74881601
0.37307152 0.29295933 0.74881601
0.37359551 0.29494381 0.74986774
0.37307152 0.29610097 0.74881601
0.37307152 0.29767179 0.74881601
0.37359551 0.29966292 0.74986774
0.37359551 0.30123594 0.74986774
0.37412095 0.30323488 0.75092238
0.37412095 0.30481014 0.75092238
0.37412095 0.30638537 0.75092238
0.37412095 0.30796063 0.75092238
0.37464789 0.30997184 0.75198007
0.37464789 0.31154931 0.75198007
0.37412095 0.31268635 0.75092238
0.37412095 0.31426162 0.75092238
0.37412095 0.31583685 0.75092238
0.37412095 0.31741211 0.75092238
0.37464789 0.31943661 0.75198007
0.37623763 0.32237625 0.75517088
0.37677053 0.32441926 0.75624055
0.37730497 0.32646808 0.75731325
0.37730497 0.32805672 0.75731325
0.37730497 0.3296454 0.75731325
0.37784091 0.33170456 0.75838894
0.37784091 0.33329546 0.75838894
0.37784091 0.33488637 0.75838894
0.37784091 0.33647728 0.75838894
0.37891737 0.33903134 0.7605496
0.37945792 0.3411127 0.76163459
0.37945792 0.34271041 0.76163459
0.38 0.3448 0.76272261
0.39465874 0.36308604 0.79214513
0.39642325 0.36637855 0.79568678
