# .PCD v0.7 - Point Cloud Data file format
VERSION 0.7
FIELDS x y z
SIZE 4 4 4
TYPE F F F
COUNT 1 1 1
WIDTH 1462
HEIGHT 1
VIEWPOINT 0 0 0 1 0 0 0
POINTS 1462
DATA ascii
0.1488547 0.27425641 0.45632976
0.14872758 0.27497864 0.45594007
0.1488547 0.27617094 0.45632976
0.14872758 0.27689156 0.45594007
0.1488547 0.27808547 0.45632976
0.1488547 0.27904272 0.45632976
0.14910959 0.28047946 0.45711115
0.14898203 0.28119761 0.45672011
0.1488547 0.28191453 0.45632976
0.1488547 0.28287178 0.45632976
0.14898203 0.28407186 0.45672011
0.1488547 0.28478631 0.45632976
0.14898203 0.28598803 0.45672011
0.14910959 0.28719178 0.45711115
0.14910959 0.2881507 0.45711115
0.14923736 0.28935733 0.45750284
0.14936535 0.29056603 0.45789522
0.14936535 0.29152659 0.45789522
0.14936535 0.29248714 0.45789522
0.14936535 0.29344767 0.45789522
0.14936535 0.29440823 0.45789522
0.14936535 0.29536879 0.45789522
0.14949356 0.29658368 0.45828825
0.14962199 0.29780069 0.45868197
0.14962199 0.29876289 0.45868197
0.14962199 0.29972509 0.45868197
0.14962199 0.30068728 0.45868197
0.14949356 0.30139056 0.45828825
0.14936535 0.30209261 0.45789522
0.14936535 0.30305317 0.45789522
0.14910959 0.30349314 0.45711115
0.14692372 0.16476111 0.44753212
0.14692372 0.16569991 0.44753212
0.14704698 0.16677852 0.44790757
0.14704698 0.16771813 0.44790757
0.14692372 0.16851635 0.44753212
0.14692372 0.16945516 0.44753212
0.14692372 0.17039396 0.44753212
0.14680067 0.17118928 0.44715732
0.14680067 0.17212731 0.44715732
0.14692372 0.1732104 0.44753212
0.14680067 0.17400335 0.44715732
0.14680067 0.17494138 0.44715732
0.14680067 0.1758794 0.44715732
0.14692372 0.17696564 0.44753212
0.14704698 0.17805369 0.44790757
0.14717044 0.17914358 0.44828364
0.14717044 0.18008396 0.44828364
0.14717044 0.18102434 0.44828364
0.14729412 0.18211764 0.44866037
0.14741799 0.18321279 0.4490377
0.14791562 0.18477637 0.45055345
0.14841659 0.18635055 0.45207945
0.14879456 0.18777589 0.45323074
0.14904761 0.18904762 0.45400155
0.14942881 0.19048594 0.45516267
0.15071367 0.19404987 0.45907637
0.15097331 0.19534884 0.45986721
0.15110345 0.19648276 0.46026364
0.15123382 0.19761863 0.46066076
0.15136442 0.19875647 0.46105859
0.15136442 0.19972366 0.46105859
0.15149525 0.2008643 0.46145707
0.15149525 0.20183232 0.46145707
0.15149525 0.20280035 0.46145707
0.1516263 0.20394464 0.46185625
0.15175758 0.20509091 0.46225613
0.15188909 0.20623916 0.46265671
0.15215278 0.20756945 0.46345991
0.15255004 0.20908616 0.46467
0.15281604 0.21042719 0.46548024
0.15175758 0.22642425 0.46225613
0.15175758 0.22739394 0.46225613
0.15188909 0.22856152 0.46265671
0.15188909 0.22953206 0.46265671
0.15188909 0.23050261 0.46265671
0.15202081 0.2316739 0.46305797
0.15188909 0.23244368 0.46265671
0.15188909 0.23341422 0.46265671
0.15188909 0.23438475 0.46265671
0.15175758 0.23515151 0.46225613
0.15175758 0.23612121 0.46225613
0.15188909 0.23729636 0.46265671
0.15188909 0.2382669 0.46265671
0.15188909 0.23923743 0.46265671
0.15175758 0.23999999 0.46225613
0.15006849 0.27089041 0.45711115
0.15045494 0.27254936 0.45828825
0.15032589 0.27327615 0.45789522
0.15045494 0.27447212 0.45828825
0.15032589 0.27519727 0.45789522
0.15006849 0.27568492 0.45711115
0.15006849 0.27664384 0.45711115
0.14981197 0.27712822 0.45632976
0.14994012 0.27832335 0.45672011
0.14968403 0.27880445 0.45594007
0.14981197 0.28 0.45632976
0.14981197 0.28095725 0.45632976
0.14968403 0.28167379 0.45594007
0.14968403 0.28263023 0.45594007
0.14981197 0.28382906 0.45632976
0.14968403 0.28454313 0.45594007
0.14968403 0.28549957 0.45594007
0.14968403 0.28645602 0.45594007
0.14968403 0.28741246 0.45594007
0.14981197 0.28861538 0.45632976
0.14994012 0.28982037 0.45672011
0.14994012 0.29077843 0.45672011
0.15006849 0.29198629 0.45711115
0.14994012 0.2926946 0.45672011
0.15006849 0.2939041 0.45711115
0.14994012 0.29461077 0.45672011
0.15019709 0.2960754 0.45750284
0.15019709 0.29703513 0.45750284
0.15019709 0.29799485 0.45750284
0.15032589 0.29921097 0.45789522
0.15045494 0.3004292 0.45828825
0.15032589 0.30113208 0.45789522
0.15019709 0.30183375 0.45750284
0.15019709 0.30279347 0.45750284
0.14994012 0.30323353 0.45672011
0.14886075 0.16492827 0.45055345
0.14835997 0.16531539 0.4490377
0.14823529 0.16611765 0.44866037
0.14835997 0.16719933 0.4490377
0.14835997 0.16814129 0.4490377
0.14811084 0.16879933 0.44828364
0.14798658 0.16959731 0.44790757
0.14786254 0.17039396 0.44753212
0.1477387 0.17118928 0.44715732
0.14786254 0.17227158 0.44753212
0.14786254 0.1732104 0.44753212
0.1477387 0.17400335 0.44715732
0.1477387 0.17494138 0.44715732
0.1477387 0.1758794 0.44715732
0.14786254 0.17696564 0.44753212
0.14798658 0.17805369 0.44790757
0.14798658 0.17899328 0.44790757
0.14811084 0.18008396 0.44828364
0.14811084 0.18102434 0.44828364
0.14811084 0.18196474 0.44828364
0.14823529 0.18305883 0.44866037
0.14860994 0.18446504 0.44979429
0.14923857 0.1861929 0.45169699
0.14961833 0.18761663 0.45284635
0.14987256 0.188887 0.45361581
0.15000001 0.19 0.45400155
0.15038364 0.19144075 0.45516267
0.15128645 0.1935506 0.45789522
0.15180723 0.19518073 0.45947146
0.15206897 0.19648276 0.46026364
0.15206897 0.19744827 0.46026364
0.15220018 0.19858499 0.46066076
0.15220018 0.19955134 0.46066076
0.15233161 0.20069085 0.46105859
0.15233161 0.20165803 0.46105859
0.15233161 0.20262522 0.46105859
0.15233161 0.2035924 0.46105859
0.15246327 0.20473638 0.46145707
0.15259516 0.20588236 0.46185625
0.15272728 0.2070303 0.46225613
0.153125 0.20854166 0.46345991
0.15246327 0.22506483 0.46145707
0.15246327 0.22603284 0.46145707
0.15246327 0.22700086 0.46145707
0.15259516 0.22816609 0.46185625
0.15259516 0.22913495 0.46185625
0.15272728 0.23030303 0.46225613
0.15272728 0.23127273 0.46225613
0.15259516 0.23204152 0.46185625
0.15259516 0.23301038 0.46185625
0.15259516 0.23397924 0.46185625
0.15246327 0.23474503 0.46145707
0.15246327 0.23571305 0.46145707
0.15272728 0.23709092 0.46225613
0.15272728 0.23806061 0.46225613
0.15272728 0.2390303 0.46225613
0.15272728 0.23999999 0.46225613
0.15272728 0.2409697 0.46225613
0.15051195 0.26901025 0.45555106
0.15051195 0.26996586 0.45555106
0.1510274 0.2718493 0.45711115
0.1508982 0.27257484 0.45672011
0.15115681 0.27400172 0.45750284
0.1510274 0.27472603 0.45711115
0.1508982 0.2754491 0.45672011
0.15076923 0.27617094 0.45632976
0.15064047 0.27689156 0.45594007
0.15076923 0.27808547 0.45632976
0.15064047 0.27880445 0.45594007
0.15064047 0.2797609 0.45594007
0.15076923 0.28095725 0.45632976
0.15064047 0.28167379 0.45594007
0.15064047 0.28263023 0.45594007
0.15076923 0.28382906 0.45632976
0.15064047 0.28454313 0.45594007
0.15064047 0.28549957 0.45594007
0.15064047 0.28645602 0.45594007
0.15064047 0.28741246 0.45594007
0.15076923 0.28861538 0.45632976
0.1508982 0.28982037 0.45672011
0.1508982 0.29077843 0.45672011
0.1510274 0.29198629 0.45711115
0.1508982 0.2926946 0.45672011
0.1510274 0.2939041 0.45711115
0.1508982 0.29461077 0.45672011
0.1510274 0.29582191 0.45711115
0.15115681 0.29703513 0.45750284
0.15115681 0.29799485 0.45750284
0.15115681 0.29895458 0.45750284
0.1514163 0.3004292 0.45828825
0.15115681 0.30087402 0.45750284
0.1510274 0.30157533 0.45711115
0.1510274 0.30253425 0.45711115
0.15076923 0.30297437 0.45632976
0.14955349 0.16559394 0.44979429
0.14942761 0.1663973 0.44941568
0.14942761 0.16734007 0.44941568
0.14930193 0.16814129 0.4490377
0.14917646 0.16894117 0.44866037
0.14892617 0.16959731 0.44790757
0.14880134 0.17039396 0.44753212
0.14867672 0.17118928 0.44715732
0.14867672 0.17212731 0.44715732
0.14867672 0.17306532 0.44715732
0.14867672 0.17400335 0.44715732
0.14867672 0.17494138 0.44715732
0.14867672 0.1758794 0.44715732
0.14880134 0.17696564 0.44753212
0.14880134 0.17790444 0.44753212
0.14892617 0.17899328 0.44790757
0.14892617 0.17993289 0.44790757
0.14892617 0.18087249 0.44790757
0.14905122 0.18196474 0.44828364
0.14917646 0.18305883 0.44866037
0.14955349 0.18446504 0.44979429
0.15018612 0.1861929 0.45169699
0.15056828 0.18761663 0.45284635
0.1506961 0.18872665 0.45323074
0.15082413 0.18983857 0.45361581
0.15095238 0.19095238 0.45400155
0.15133844 0.19239557 0.45516267
0.15263973 0.19597593 0.45907637
0.15290266 0.1972782 0.45986721
0.15303448 0.19841379 0.46026364
0.15316652 0.19955134 0.46066076
0.15316652 0.20051768 0.46066076
0.15316652 0.20148404 0.46066076
0.1532988 0.20262522 0.46105859
0.1532988 0.2035924 0.46105859
0.1532988 0.20455958 0.46105859
0.15343128 0.20570441 0.46145707
0.15343128 0.2240968 0.46145707
0.15343128 0.22506483 0.46145707
0.15343128 0.22603284 0.46145707
0.15356402 0.22719723 0.46185625
0.15356402 0.22816609 0.46185625
0.15356402 0.22913495 0.46185625
0.15356402 0.23010381 0.46185625
0.15356402 0.23107266 0.46185625
0.15356402 0.23204152 0.46185625
0.15356402 0.23301038 0.46185625
0.15356402 0.23397924 0.46185625
0.15356402 0.2349481 0.46185625
0.15356402 0.23591696 0.46185625
0.15369697 0.23709092 0.46225613
0.15369697 0.23806061 0.46225613
0.15369697 0.2390303 0.46225613
0.15369697 0.23999999 0.46225613
0.15369697 0.2409697 0.46225613
0.15383016 0.24214904 0.46265671
0.1517265 0.27138463 0.45632976
0.1517265 0.27234188 0.45632976
0.15211654 0.27400172 0.45750284
0.152247 0.27519727 0.45789522
0.15211654 0.27592117 0.45750284
0.1519863 0.27664384 0.45711115
0.1517265 0.27712822 0.45632976
0.1517265 0.27808547 0.45632976
0.15159692 0.27880445 0.45594007
0.15159692 0.2797609 0.45594007
0.15159692 0.28071734 0.45594007
0.15146758 0.28143343 0.45555106
0.15159692 0.28263023 0.45594007
0.15159692 0.28358668 0.45594007
0.15159692 0.28454313 0.45594007
0.1517265 0.28574359 0.45632976
0.15185629 0.28694612 0.45672011
0.1517265 0.28765813 0.45632976
0.15185629 0.28886229 0.45672011
0.15185629 0.28982037 0.45672011
0.1519863 0.2910274 0.45711115
0.15211654 0.29223651 0.45750284
0.15211654 0.29319623 0.45750284
0.15211654 0.29415596 0.45750284
0.15211654 0.29511568 0.45750284
0.152247 0.29632932 0.45789522
0.152247 0.29728988 0.45789522
0.152247 0.29825044 0.45789522
0.15237768 0.2994678 0.45828825
0.15237768 0.3004292 0.45828825
0.15211654 0.30087402 0.45750284
0.1519863 0.30157533 0.45711115
0.15185629 0.30227545 0.45672011
0.1517265 0.30297437 0.45632976
0.15049705 0.16559394 0.44979429
0.15037037 0.1663973 0.44941568
0.15037037 0.16734007 0.44941568
0.15024391 0.16814129 0.4490377
0.15011765 0.16894117 0.44866037
0.14986578 0.16959731 0.44790757
0.14986578 0.17053691 0.44790757
0.14961474 0.17118928 0.44715732
0.14974014 0.17227158 0.44753212
0.14974014 0.1732104 0.44753212
0.14961474 0.17400335 0.44715732
0.14961474 0.17494138 0.44715732
0.14961474 0.1758794 0.44715732
0.14974014 0.17696564 0.44753212
0.14986578 0.17805369 0.44790757
0.14974014 0.17884324 0.44753212
0.14986578 0.17993289 0.44790757
0.14986578 0.18087249 0.44790757
0.14986578 0.18181208 0.44790757
0.1499916 0.18290512 0.44828364
0.15024391 0.18415475 0.4490377
0.15075105 0.18572152 0.45055345
0.15113367 0.18714043 0.45169699
0.15138984 0.18840678 0.45246255
0.15164685 0.18967742 0.45323074
0.1517757 0.19079015 0.45361581
0.15190476 0.19190477 0.45400155
0.15216355 0.19318569 0.45477498
0.15347078 0.19676976 0.45868197
0.15386735 0.19824289 0.45986721
0.154 0.19937931 0.46026364
0.15413287 0.20051768 0.46066076
0.15413287 0.20148404 0.46066076
0.15413287 0.20245039 0.46066076
0.15426597 0.2035924 0.46105859
0.15426597 0.20455958 0.46105859
0.15547432 0.22078329 0.46467
0.15547432 0.22175805 0.46467
0.15533914 0.22253913 0.46426594
0.1548007 0.2227383 0.46265671
0.15453286 0.2233218 0.46185625
0.15439931 0.2240968 0.46145707
0.15439931 0.22506483 0.46145707
0.15439931 0.22603284 0.46145707
0.15453286 0.22719723 0.46185625
0.15453286 0.22816609 0.46185625
0.15466666 0.22933333 0.46225613
0.15466666 0.23030303 0.46225613
0.15453286 0.23107266 0.46185625
0.15453286 0.23204152 0.46185625
0.15453286 0.23301038 0.46185625
0.15453286 0.23397924 0.46185625
0.15453286 0.2349481 0.46185625
0.15453286 0.23591696 0.46185625
0.1548007 0.23729636 0.46265671
0.1548007 0.2382669 0.46265671
0.1548007 0.23923743 0.46265671
0.15493496 0.2404163 0.46305797
0.1548007 0.24117851 0.46265671
0.15506944 0.24256945 0.46345991
0.15560976 0.24439025 0.46507475
0.15294521 0.2718493 0.45711115
0.15294521 0.27280822 0.45711115
0.15307626 0.27400172 0.45750284
0.15294521 0.27472603 0.45711115
0.15294521 0.27568492 0.45711115
0.15281437 0.27640718 0.45672011
0.15268376 0.27712822 0.45632976
0.15268376 0.27808547 0.45632976
0.15255338 0.27880445 0.45594007
0.15255338 0.2797609 0.45594007
0.15255338 0.28071734 0.45594007
0.1524232 0.28143343 0.45555106
0.15255338 0.28263023 0.45594007
0.15255338 0.28358668 0.45594007
0.15255338 0.28454313 0.45594007
0.15268376 0.28574359 0.45632976
0.15268376 0.28670084 0.45632976
0.15255338 0.28741246 0.45594007
0.15268376 0.28861538 0.45632976
0.15268376 0.28957266 0.45632976
0.15268376 0.29052991 0.45632976
0.15268376 0.29148719 0.45632976
0.15268376 0.29244444 0.45632976
0.15281437 0.29365268 0.45672011
0.15268376 0.29435897 0.45632976
0.15281437 0.29556885 0.45672011
0.15268376 0.2962735 0.45632976
0.15268376 0.29723078 0.45632976
0.15281437 0.29844311 0.45672011
0.15294521 0.29965752 0.45711115
0.15268376 0.30010256 0.45632976
0.15268376 0.30105984 0.45632976
0.15255338 0.30175918 0.45594007
0.15255338 0.30271563 0.45594007
0.15131313 0.16545455 0.44941568
0.15118587 0.16625737 0.4490377
0.15105882 0.16705883 0.44866037
0.15093198 0.16785894 0.44828364
0.15080537 0.16865772 0.44790757
0.15067896 0.16945516 0.44753212
0.15067896 0.17039396 0.44753212
0.15055276 0.17118928 0.44715732
0.15055276 0.17212731 0.44715732
0.15055276 0.17306532 0.44715732
0.15055276 0.17400335 0.44715732
0.15055276 0.17494138 0.44715732
0.15055276 0.1758794 0.44715732
0.15067896 0.17696564 0.44753212
0.15080537 0.17805369 0.44790757
0.15080537 0.17899328 0.44790757
0.15067896 0.17978206 0.44753212
0.15080537 0.18087249 0.44790757
0.15080537 0.18181208 0.44790757
0.15080537 0.18275167 0.44790757
0.15105882 0.184 0.44866037
0.15131313 0.18525253 0.44941568
0.15156829 0.18650928 0.45017356
0.15182433 0.18777028 0.45093396
0.15221 0.1891956 0.45207945
0.15233898 0.19030508 0.45246255
0.15259762 0.19157895 0.45323074
0.15272728 0.19269329 0.45361581
0.15285714 0.19380952 0.45400155
0.15324809 0.19526002 0.45516267
0.15430044 0.19756223 0.45828825
0.15483204 0.19920757 0.45986721
0.15496552 0.20034483 0.46026364
0.15509923 0.20148404 0.46066076
0.15523316 0.20262522 0.46105859
0.15523316 0.2035924 0.46105859
0.15523316 0.20455958 0.46105859
0.15631305 0.21864347 0.46426594
0.15617724 0.21942659 0.46386257
0.15604167 0.22020833 0.46345991
0.15617724 0.22137272 0.46386257
0.15617724 0.22234578 0.46386257
0.15563637 0.22254546 0.46225613
0.15550172 0.2233218 0.46185625
0.15536733 0.2240968 0.46145707
0.15536733 0.22506483 0.46145707
0.15536733 0.22603284 0.46145707
0.15550172 0.22719723 0.46185625
0.15550172 0.22816609 0.46185625
0.15550172 0.22913495 0.46185625
0.15563637 0.23030303 0.46225613
0.15550172 0.23107266 0.46185625
0.15536733 0.23184097 0.46145707
0.15550172 0.23301038 0.46185625
0.15550172 0.23397924 0.46185625
0.15550172 0.2349481 0.46185625
0.15550172 0.23591696 0.46185625
0.15563637 0.23709092 0.46225613
0.15577123 0.2382669 0.46265671
0.15577123 0.23923743 0.46265671
0.15577123 0.24020797 0.46265671
0.15577123 0.24117851 0.46265671
0.15590633 0.24235906 0.46305797
0.15644908 0.24417755 0.46467
0.15672189 0.24557978 0.46548024
0.15430044 0.27254936 0.45828825
0.15390411 0.27280822 0.45711115
0.15403599 0.27400172 0.45750284
0.15390411 0.27472603 0.45711115
0.15377246 0.2754491 0.45672011
0.15364103 0.27617094 0.45632976
0.15364103 0.27712822 0.45632976
0.15364103 0.27808547 0.45632976
0.15364103 0.27904272 0.45632976
0.15364103 0.28 0.45632976
0.15364103 0.28095725 0.45632976
0.15350983 0.28167379 0.45594007
0.15350983 0.28263023 0.45594007
0.15350983 0.28358668 0.45594007
0.15350983 0.28454313 0.45594007
0.15364103 0.28574359 0.45632976
0.15364103 0.28670084 0.45632976
0.15364103 0.28765813 0.45632976
0.15377246 0.28886229 0.45672011
0.15364103 0.28957266 0.45632976
0.15364103 0.29052991 0.45632976
0.15364103 0.29148719 0.45632976
0.15350983 0.29219469 0.45594007
0.15350983 0.29315114 0.45594007
0.15350983 0.29410759 0.45594007
0.15350983 0.29506406 0.45594007
0.15350983 0.29602051 0.45594007
0.15364103 0.29723078 0.45632976
0.15364103 0.29818803 0.45632976
0.15364103 0.29914531 0.45632976
0.15337884 0.29959044 0.45555106
0.15350983 0.30080274 0.45594007
0.15337884 0.30150172 0.45555106
0.15324809 0.30219948 0.45516267
0.15238416 0.16559394 0.44979429
0.15212783 0.16625737 0.4490377
0.15212783 0.16719933 0.4490377
0.15187238 0.16785894 0.44828364
0.15174496 0.16865772 0.44790757
0.15161777 0.16945516 0.44753212
0.15161777 0.17039396 0.44753212
0.15149079 0.17118928 0.44715732
0.15161777 0.17227158 0.44753212
0.15149079 0.17306532 0.44715732
0.15149079 0.17400335 0.44715732
0.15149079 0.17494138 0.44715732
0.15149079 0.1758794 0.44715732
0.15161777 0.17696564 0.44753212
0.15174496 0.17805369 0.44790757
0.15174496 0.17899328 0.44790757
0.15174496 0.17993289 0.44790757
0.15161777 0.18072087 0.44753212
0.15174496 0.18181208 0.44790757
0.15174496 0.18275167 0.44790757
0.15187238 0.18384551 0.44828364
0.15212783 0.18509673 0.4490377
0.15225589 0.18619528 0.44941568
0.15238416 0.18729571 0.44979429
0.15264136 0.18855697 0.45055345
0.15289941 0.18982248 0.45131516
0.15315834 0.1910923 0.45207945
0.15328814 0.19220339 0.45246255
0.15341815 0.19331637 0.45284635
0.15367885 0.19459642 0.45361581
0.15407155 0.19604769 0.45477498
0.15566266 0.19903615 0.45947146
0.15606557 0.20148404 0.46066076
0.15620035 0.20262522 0.46105859
0.15620035 0.2035924 0.46105859
0.15633535 0.20473638 0.46145707
0.15633535 0.20570441 0.46145707
0.15647058 0.20685121 0.46185625
0.15660606 0.208 0.46225613
0.15674177 0.20915078 0.46265671
0.15687771 0.21030356 0.46305797
0.1571503 0.21164206 0.46386257
0.15728696 0.2128 0.46426594
0.15728696 0.21377391 0.46426594
0.1571503 0.21456125 0.46386257
0.1571503 0.21553431 0.46386257
0.15701389 0.21631944 0.46345991
0.15687771 0.21710321 0.46305797
0.15674177 0.21788561 0.46265671
0.15660606 0.21866667 0.46225613
0.15647058 0.21944636 0.46185625
0.15660606 0.22060606 0.46225613
0.15647058 0.22138408 0.46185625
0.15633535 0.22216076 0.46145707
0.15620035 0.22293609 0.46105859
0.15633535 0.2240968 0.46145707
0.15633535 0.22506483 0.46145707
0.15633535 0.22603284 0.46145707
0.15633535 0.22700086 0.46145707
0.15647058 0.22816609 0.46185625
0.15647058 0.22913495 0.46185625
0.15647058 0.23010381 0.46185625
0.15647058 0.23107266 0.46185625
0.15633535 0.23184097 0.46145707
0.15633535 0.23280899 0.46145707
0.15647058 0.23397924 0.46185625
0.15647058 0.2349481 0.46185625
0.15660606 0.23612121 0.46225613
0.15674177 0.23729636 0.46265671
0.15674177 0.2382669 0.46265671
0.15674177 0.23923743 0.46265671
0.15687771 0.2404163 0.46305797
0.15674177 0.24117851 0.46265671
0.15701389 0.24256945 0.46345991
0.15728696 0.24396522 0.46426594
0.15742385 0.24515231 0.46467
0.15756097 0.24634147 0.46507475
0.15539519 0.27278352 0.45868197
0.15512864 0.27327615 0.45789522
0.15512864 0.27423671 0.45789522
0.15499571 0.27496144 0.45750284
0.15486301 0.27568492 0.45711115
0.15473054 0.27640718 0.45672011
0.15446627 0.27689156 0.45594007
0.1545983 0.27808547 0.45632976
0.1545983 0.27904272 0.45632976
0.1545983 0.28 0.45632976
0.1545983 0.28095725 0.45632976
0.15446627 0.28167379 0.45594007
0.15446627 0.28263023 0.45594007
0.15446627 0.28358668 0.45594007
0.15446627 0.28454313 0.45594007
0.1545983 0.28574359 0.45632976
0.1545983 0.28670084 0.45632976
0.15446627 0.28741246 0.45594007
0.1545983 0.28861538 0.45632976
0.1545983 0.28957266 0.45632976
0.1545983 0.29052991 0.45632976
0.1545983 0.29148719 0.45632976
0.15446627 0.29219469 0.45594007
0.15446627 0.29315114 0.45594007
0.15433447 0.29385665 0.45555106
0.15433447 0.29481229 0.45555106
0.15420289 0.29551578 0.45516267
0.15433447 0.29672354 0.45555106
0.15433447 0.29767919 0.45555106
0.15433447 0.29863483 0.45555106
0.15420289 0.29933503 0.45516267
0.15433447 0.30054608 0.45555106
0.15420289 0.30124468 0.45516267
0.15407155 0.30194208 0.45477498
0.15358649 0.16587342 0.45055345
0.15319866 0.1663973 0.44941568
0.15306981 0.16719933 0.4490377
0.15294118 0.168 0.44866037
0.15281276 0.16879933 0.44828364
0.15268457 0.16959731 0.44790757
0.15255658 0.17039396 0.44753212
0.15242881 0.17118928 0.44715732
0.15242881 0.17212731 0.44715732
0.15242881 0.17306532 0.44715732
0.15242881 0.17400335 0.44715732
0.15242881 0.17494138 0.44715732
0.15242881 0.1758794 0.44715732
0.15255658 0.17696564 0.44753212
0.15268457 0.17805369 0.44790757
0.15268457 0.17899328 0.44790757
0.15268457 0.17993289 0.44790757
0.15255658 0.18072087 0.44753212
0.15255658 0.18165968 0.44753212
0.15255658 0.18259849 0.44753212
0.15268457 0.18369128 0.44790757
0.15281276 0.18478589 0.44828364
0.15281276 0.18572628 0.44828364
0.15294118 0.18682353 0.44866037
0.15306981 0.18792263 0.4490377
0.15319866 0.18902357 0.44941568
0.15358649 0.19044726 0.45055345
0.15384616 0.19171597 0.45131516
0.15410669 0.19298899 0.45207945
0.15423729 0.19410169 0.45246255
0.15449916 0.195382 0.45323074
0.15716752 0.20455958 0.46105859
0.15730338 0.20570441 0.46145707
0.15730338 0.20667243 0.46145707
0.15743944 0.20782007 0.46185625
0.15757576 0.2089697 0.46225613
0.15771231 0.21012132 0.46265671
0.15784909 0.21127494 0.46305797
0.1579861 0.21243055 0.46345991
0.1579861 0.21340278 0.46345991
0.15784909 0.21418907 0.46305797
0.15771231 0.214974 0.46265671
0.15757576 0.21575758 0.46225613
0.15743944 0.21653979 0.46185625
0.15743944 0.21750864 0.46185625
0.15730338 0.21828867 0.46145707
0.15716752 0.21906736 0.46105859
0.15716752 0.22003454 0.46105859
0.15716752 0.22100173 0.46105859
0.15703192 0.22177739 0.46066076
0.15703192 0.22274375 0.46066076
0.15703192 0.22371009 0.46066076
0.15716752 0.22487047 0.46105859
0.15716752 0.22583765 0.46105859
0.15730338 0.22700086 0.46145707
0.15730338 0.22796889 0.46145707
0.15730338 0.22893691 0.46145707
0.15730338 0.22990492 0.46145707
0.15730338 0.23087294 0.46145707
0.15730338 0.23184097 0.46145707
0.15730338 0.23280899 0.46145707
0.15743944 0.23397924 0.46185625
0.15743944 0.2349481 0.46185625
0.15757576 0.23612121 0.46225613
0.15757576 0.23709092 0.46225613
0.15757576 0.23806061 0.46225613
0.15757576 0.2390303 0.46225613
0.15771231 0.24020797 0.46265671
0.15757576 0.2409697 0.46225613
0.15771231 0.24214904 0.46265671
0.15784909 0.24333045 0.46305797
0.1579861 0.24451388 0.46345991
0.1579861 0.24548611 0.46345991
0.15826087 0.24688695 0.46426594
0.15676141 0.27348837 0.45986721
0.15649183 0.27398109 0.45907637
0.15635739 0.27470791 0.45868197
0.15622318 0.27543348 0.45828825
0.15608919 0.2761578 0.45789522
0.15595545 0.27688089 0.45750284
0.15568863 0.27736527 0.45672011
0.15582192 0.27856165 0.45711115
0.15568863 0.27928144 0.45672011
0.15568863 0.28023952 0.45672011
0.15568863 0.28119761 0.45672011
0.15542272 0.28167379 0.45594007
0.15542272 0.28263023 0.45594007
0.15542272 0.28358668 0.45594007
0.15542272 0.28454313 0.45594007
0.15542272 0.28549957 0.45594007
0.15542272 0.28645602 0.45594007
0.15542272 0.28741246 0.45594007
0.15555556 0.28861538 0.45632976
0.15555556 0.28957266 0.45632976
0.15555556 0.29052991 0.45632976
0.15542272 0.29123825 0.45594007
0.15542272 0.29219469 0.45594007
0.1552901 0.29290101 0.45555106
0.15515772 0.29360613 0.45516267
0.15515772 0.29456097 0.45516267
0.15515772 0.29551578 0.45516267
0.1552901 0.29672354 0.45555106
0.1552901 0.29767919 0.45555106
0.1552901 0.29863483 0.45555106
0.1552901 0.29959044 0.45555106
0.1552901 0.30054608 0.45555106
0.1552901 0.30150172 0.45555106
0.15515772 0.30219948 0.45516267
0.15401177 0.16625737 0.4490377
0.15388235 0.16705883 0.44866037
0.15375315 0.16785894 0.44828364
0.15375315 0.16879933 0.44828364
0.15362416 0.16959731 0.44790757
0.15349539 0.17039396 0.44753212
0.15349539 0.17133278 0.44753212
0.15349539 0.17227158 0.44753212
0.15349539 0.1732104 0.44753212
0.15349539 0.1741492 0.44753212
0.15349539 0.17508802 0.44753212
0.15349539 0.17602682 0.44753212
0.15362416 0.1771141 0.44790757
0.15375315 0.1782032 0.44828364
0.15362416 0.17899328 0.44790757
0.15362416 0.17993289 0.44790757
0.15362416 0.18087249 0.44790757
0.15349539 0.18165968 0.44753212
0.15349539 0.18259849 0.44753212
0.15362416 0.18369128 0.44790757
0.15375315 0.18478589 0.44828364
0.15375315 0.18572628 0.44828364
0.15388235 0.18682353 0.44866037
0.15388235 0.1877647 0.44866037
0.15388235 0.18870588 0.44866037
0.15401177 0.18980657 0.4490377
0.15414141 0.19090909 0.44941568
0.15427127 0.19201347 0.44979429
0.15453164 0.19328269 0.45055345
0.15492386 0.19472082 0.45169699
0.15505503 0.19583404 0.45207945
0.15518644 0.19694915 0.45246255
0.15799828 0.21501294 0.46066076
0.15799828 0.21597929 0.46066076
0.15813471 0.21713299 0.46105859
0.15813471 0.21810018 0.46105859
0.15813471 0.21906736 0.46105859
0.15813471 0.22003454 0.46105859
0.15799828 0.22081104 0.46066076
0.15799828 0.22177739 0.46066076
0.15799828 0.22274375 0.46066076
0.15813471 0.22390328 0.46105859
0.15813471 0.22487047 0.46105859
0.15827139 0.22603284 0.46145707
0.1584083 0.22719723 0.46185625
0.1584083 0.22816609 0.46185625
0.1584083 0.22913495 0.46185625
0.1584083 0.23010381 0.46185625
0.1584083 0.23107266 0.46185625
0.15827139 0.23184097 0.46145707
0.15827139 0.23280899 0.46145707
0.1584083 0.23397924 0.46185625
0.1584083 0.2349481 0.46185625
0.15854545 0.23612121 0.46225613
0.15868284 0.23729636 0.46265671
0.15868284 0.2382669 0.46265671
0.15868284 0.23923743 0.46265671
0.15854545 0.23999999 0.46225613
0.15854545 0.2409697 0.46225613
0.15854545 0.2419394 0.46225613
0.15882047 0.24333045 0.46305797
0.15882047 0.24430183 0.46305797
0.15895833 0.24548611 0.46345991
0.15923478 0.24688695 0.46426594
0.15731959 0.27278352 0.45868197
0.15691517 0.27304199 0.45750284
0.15678082 0.27376711 0.45711115
0.15664671 0.27449101 0.45672011
0.15651283 0.27521369 0.45632976
0.15637916 0.27593508 0.45594007
0.15624574 0.27665529 0.45555106
0.15651283 0.27808547 0.45632976
0.15651283 0.27904272 0.45632976
0.15651283 0.28 0.45632976
0.15651283 0.28095725 0.45632976
0.15651283 0.28191453 0.45632976
0.15637916 0.28263023 0.45594007
0.15637916 0.28358668 0.45594007
0.15637916 0.28454313 0.45594007
0.15651283 0.28574359 0.45632976
0.15637916 0.28645602 0.45594007
0.15637916 0.28741246 0.45594007
0.15651283 0.28861538 0.45632976
0.15651283 0.28957266 0.45632976
0.15651283 0.29052991 0.45632976
0.15651283 0.29148719 0.45632976
0.15637916 0.29219469 0.45594007
0.15637916 0.29315114 0.45594007
0.15624574 0.29385665 0.45555106
0.15611254 0.29456097 0.45516267
0.15611254 0.29551578 0.45516267
0.15611254 0.29647058 0.45516267
0.15611254 0.29742542 0.45516267
0.15611254 0.29838023 0.45516267
0.15624574 0.29959044 0.45555106
0.15637916 0.30080274 0.45594007
0.15637916 0.30175918 0.45594007
0.15624574 0.30245733 0.45555106
0.15508418 0.1663973 0.44941568
0.15482353 0.16705883 0.44866037
0.15469353 0.16785894 0.44828364
0.15469353 0.16879933 0.44828364
0.15469353 0.16973971 0.44828364
0.15456375 0.17053691 0.44790757
0.1544342 0.17133278 0.44753212
0.1544342 0.17227158 0.44753212
0.15456375 0.1733557 0.44790757
0.15456375 0.17429531 0.44790757
0.1544342 0.17508802 0.44753212
0.15456375 0.17617449 0.44790757
0.15469353 0.1772628 0.44828364
0.15469353 0.1782032 0.44828364
0.15469353 0.17914358 0.44828364
0.15456375 0.17993289 0.44790757
0.15456375 0.18087249 0.44790757
0.15456375 0.18181208 0.44790757
0.1544342 0.18259849 0.44753212
0.1544342 0.1835373 0.44753212
0.15456375 0.18463087 0.44790757
0.15456375 0.18557046 0.44790757
0.15469353 0.18666667 0.44828364
0.15469353 0.18760705 0.44828364
0.15482353 0.18870588 0.44866037
0.15482353 0.18964706 0.44866037
0.15482353 0.19058824 0.44866037
0.15482353 0.19152941 0.44866037
0.15495375 0.19263247 0.4490377
0.15508418 0.19373737 0.44941568
0.15534569 0.19500843 0.45017356
0.15534569 0.19595279 0.45017356
0.15547679 0.1970633 0.45055345
0.1556081 0.19817567 0.45093396
0.1556081 0.19912162 0.45093396
0.15573965 0.20023669 0.45131516
0.15587141 0.20135364 0.45169699
0.15587141 0.20230119 0.45169699
0.15587141 0.20324872 0.45169699
0.15587141 0.20419627 0.45169699
0.15600339 0.20531753 0.45207945
0.15600339 0.20626588 0.45207945
0.15626803 0.20756574 0.45284635
0.15626803 0.20851569 0.45284635
0.15626803 0.20946565 0.45284635
0.15640068 0.21059422 0.45323074
0.15666667 0.21190476 0.45400155
0.15693356 0.21321976 0.45477498
0.15706734 0.21435635 0.45516267
0.15733561 0.2156789 0.45594007
0.15747009 0.21682051 0.45632976
0.15760478 0.21796407 0.45672011
0.15747009 0.21873504 0.45632976
0.15733561 0.2195047 0.45594007
0.15773973 0.2210274 0.45711115
0.15841788 0.22294067 0.45907637
0.15882759 0.22448276 0.46026364
0.15896462 0.2256428 0.46066076
0.15896462 0.22660914 0.46066076
0.1591019 0.22777203 0.46105859
0.1591019 0.2287392 0.46105859
0.1591019 0.22970639 0.46105859
0.1591019 0.23067358 0.46105859
0.1591019 0.23164076 0.46105859
0.1591019 0.23260795 0.46105859
0.15923941 0.23377702 0.46145707
0.15937716 0.2349481 0.46185625
0.15951516 0.23612121 0.46225613
0.15951516 0.23709092 0.46225613
0.15965338 0.2382669 0.46265671
0.15965338 0.23923743 0.46265671
0.15951516 0.23999999 0.46225613
0.15937716 0.24076125 0.46185625
0.15951516 0.2419394 0.46225613
0.15993056 0.24354167 0.46345991
0.16006951 0.24472633 0.46386257
0.1602087 0.24591304 0.46426594
0.16034813 0.24710183 0.46467
0.15841788 0.2672399 0.45907637
0.15841788 0.26820293 0.45907637
0.15855421 0.26939759 0.45947146
0.15869078 0.27059433 0.45986721
0.15869078 0.2725237 0.45986721
0.15855421 0.27325302 0.45947146
0.15841788 0.27398109 0.45907637
0.15828179 0.27470791 0.45868197
0.15814592 0.27543348 0.45828825
0.15801029 0.2761578 0.45789522
0.15773973 0.27664384 0.45711115
0.15747009 0.27712822 0.45632976
0.15760478 0.27832335 0.45672011
0.15760478 0.27928144 0.45672011
0.15747009 0.28 0.45632976
0.15747009 0.28095725 0.45632976
0.15747009 0.28191453 0.45632976
0.15747009 0.28287178 0.45632976
0.15747009 0.28382906 0.45632976
0.15747009 0.28478631 0.45632976
0.15747009 0.28574359 0.45632976
0.15733561 0.28645602 0.45594007
0.15733561 0.28741246 0.45594007
0.15747009 0.28861538 0.45632976
0.15747009 0.28957266 0.45632976
0.15747009 0.29052991 0.45632976
0.15747009 0.29148719 0.45632976
0.15733561 0.29219469 0.45594007
0.15733561 0.29315114 0.45594007
0.15720136 0.29385665 0.45555106
0.15706734 0.29456097 0.45516267
0.15706734 0.29551578 0.45516267
0.15706734 0.29647058 0.45516267
0.15706734 0.29742542 0.45516267
0.15706734 0.29838023 0.45516267
0.15720136 0.29959044 0.45555106
0.15720136 0.30054608 0.45555106
0.15720136 0.30150172 0.45555106
0.15720136 0.30245733 0.45555106
0.26107043 0.25949296 0.75198007
0.26107043 0.26107043 0.75198007
0.26107043 0.2626479 0.75198007
0.26107043 0.26422536 0.75198007
0.26143864 0.26617771 0.75304067
0.15550336 0.16677852 0.44790757
0.15550336 0.16771813 0.44790757
0.15550336 0.16865772 0.44790757
0.15550336 0.16959731 0.44790757
0.15537301 0.17039396 0.44753212
0.15537301 0.17133278 0.44753212
0.15537301 0.17227158 0.44753212
0.15537301 0.1732104 0.44753212
0.15537301 0.1741492 0.44753212
0.15537301 0.17508802 0.44753212
0.15537301 0.17602682 0.44753212
0.15550336 0.1771141 0.44790757
0.15563393 0.1782032 0.44828364
0.15550336 0.17899328 0.44790757
0.15550336 0.17993289 0.44790757
0.15550336 0.18087249 0.44790757
0.15550336 0.18181208 0.44790757
0.15537301 0.18259849 0.44753212
0.15537301 0.1835373 0.44753212
0.15550336 0.18463087 0.44790757
0.15550336 0.18557046 0.44790757
0.15550336 0.18651007 0.44790757
0.15563393 0.18760705 0.44828364
0.15563393 0.18854743 0.44828364
0.15563393 0.18948783 0.44828364
0.15563393 0.19042821 0.44828364
0.1557647 0.19152941 0.44866037
0.15589571 0.19263247 0.4490377
0.15602693 0.19373737 0.44941568
0.15629005 0.19500843 0.45017356
0.15642194 0.19611815 0.45055345
0.15642194 0.1970633 0.45055345
0.15655406 0.19817567 0.45093396
0.1566864 0.19928995 0.45131516
0.15681896 0.20040609 0.45169699
0.15695174 0.20152414 0.45207945
0.15695174 0.20247248 0.45207945
0.15695174 0.20342083 0.45207945
0.15695174 0.20436917 0.45207945
0.15695174 0.20531753 0.45207945
0.15695174 0.20626588 0.45207945
0.15708475 0.20738983 0.45246255
0.15708475 0.20833898 0.45246255
0.15708475 0.20928814 0.45246255
0.15708475 0.21023729 0.45246255
0.15735145 0.21154499 0.45323074
0.15748513 0.2126763 0.45361581
0.15748513 0.21362787 0.45361581
0.15748513 0.21457943 0.45361581
0.15748513 0.21553101 0.45361581
0.15748513 0.21648258 0.45361581
0.15748513 0.21743415 0.45361581
0.15735145 0.21820034 0.45323074
0.15735145 0.21915111 0.45323074
0.15735145 0.22010186 0.45323074
0.16006908 0.22777203 0.46105859
0.16006908 0.2287392 0.46105859
0.16006908 0.22970639 0.46105859
0.15993097 0.23047455 0.46066076
0.15993097 0.2314409 0.46066076
0.15993097 0.23240724 0.46066076
0.16006908 0.23357514 0.46105859
0.16020744 0.23474503 0.46145707
0.16034602 0.23591696 0.46185625
0.16034602 0.23688582 0.46185625
0.16048485 0.23806061 0.46225613
0.16048485 0.2390303 0.46225613
0.16034602 0.23979239 0.46185625
0.16034602 0.24076125 0.46185625
0.16048485 0.2419394 0.46225613
0.16062392 0.24311958 0.46265671
0.16090278 0.24451388 0.46345991
0.16104257 0.24569939 0.46386257
0.16118261 0.24688695 0.46426594
0.16132289 0.24807659 0.46467
0.16132289 0.24905135 0.46467
0.15897085 0.26655233 0.45789522
0.15897085 0.26751286 0.45789522
0.15924399 0.2689347 0.45868197
0.15924399 0.26989689 0.45868197
0.15938091 0.271092 0.45907637
0.1591073 0.271588 0.45828825
0.1591073 0.27254936 0.45828825
0.15869863 0.27280822 0.45711115
0.15842736 0.27329916 0.45632976
0.15842736 0.27425641 0.45632976
0.15829206 0.27497864 0.45594007
0.15815699 0.27569965 0.45555106
0.15815699 0.27665529 0.45555106
0.15829206 0.27784801 0.45594007
0.15842736 0.27904272 0.45632976
0.15829206 0.2797609 0.45594007
0.15829206 0.28071734 0.45594007
0.15829206 0.28167379 0.45594007
0.15829206 0.28263023 0.45594007
0.15829206 0.28358668 0.45594007
0.15829206 0.28454313 0.45594007
0.15829206 0.28549957 0.45594007
0.15829206 0.28645602 0.45594007
0.15829206 0.28741246 0.45594007
0.15829206 0.28836891 0.45594007
0.15829206 0.28932536 0.45594007
0.15842736 0.29052991 0.45632976
0.15829206 0.29123825 0.45594007
0.15829206 0.29219469 0.45594007
0.15815699 0.29290101 0.45555106
0.15802217 0.29360613 0.45516267
0.15802217 0.29456097 0.45516267
0.15788756 0.29526407 0.45477498
0.15788756 0.29621807 0.45477498
0.15788756 0.29717207 0.45477498
0.15788756 0.29812607 0.45477498
0.15788756 0.29908007 0.45477498
0.15788756 0.30003408 0.45477498
0.15788756 0.30098808 0.45477498
0.15775318 0.30168509 0.45438793
0.26191011 0.257191 0.74986774
0.26227847 0.25912797 0.75092238
0.26191011 0.26033708 0.74986774
0.26191011 0.26191011 0.74986774
0.26191011 0.26348314 0.74986774
0.26227847 0.26542896 0.75092238
0.2626479 0.26738027 0.75198007
0.26338983 0.26971751 0.75410426
0.15631182 0.16945516 0.44753212
0.15631182 0.17039396 0.44753212
0.1561809 0.17118928 0.44715732
0.15631182 0.17227158 0.44753212
0.15631182 0.1732104 0.44753212
0.15644296 0.17429531 0.44790757
0.15644296 0.1752349 0.44790757
0.15644296 0.17617449 0.44790757
0.15657431 0.1772628 0.44828364
0.15670589 0.17835294 0.44866037
0.15657431 0.17914358 0.44828364
0.15657431 0.18008396 0.44828364
0.15657431 0.18102434 0.44828364
0.15644296 0.18181208 0.44790757
0.15631182 0.18259849 0.44753212
0.15644296 0.18369128 0.44790757
0.15644296 0.18463087 0.44790757
0.15631182 0.18541493 0.44753212
0.15644296 0.18651007 0.44790757
0.15657431 0.18760705 0.44828364
0.15657431 0.18854743 0.44828364
0.15657431 0.18948783 0.44828364
0.15657431 0.19042821 0.44828364
0.15657431 0.19136859 0.44828364
0.15657431 0.19230898 0.44828364
0.15670589 0.19341177 0.44866037
0.15670589 0.19435294 0.44866037
0.15683767 0.19545837 0.4490377
0.15683767 0.19640033 0.4490377
0.1569697 0.19750842 0.44941568
0.15710194 0.19861837 0.44979429
0.15710194 0.19956192 0.44979429
0.1573671 0.20084389 0.45055345
0.1575 0.20195946 0.45093396
0.1575 0.2029054 0.45093396
0.15763314 0.20402367 0.45131516
0.15776649 0.20514382 0.45169699
0.15776649 0.20609137 0.45169699
0.15776649 0.20703892 0.45169699
0.15776649 0.20798646 0.45169699
0.15790008 0.20911092 0.45207945
0.15790008 0.21005927 0.45207945
0.15803389 0.21118644 0.45246255
0.15816794 0.21231551 0.45284635
0.1583022 0.21344651 0.45323074
0.1583022 0.21439728 0.45323074
0.1583022 0.21534805 0.45323074
0.1583022 0.21629882 0.45323074
0.1583022 0.21724957 0.45323074
0.15816794 0.21801527 0.45284635
0.15816794 0.21896522 0.45284635
0.15816794 0.21991518 0.45284635
0.1583022 0.22105263 0.45323074
0.1584367 0.22219202 0.45361581
0.15870638 0.22352341 0.45438793
0.1592485 0.22524337 0.45594007
0.16020618 0.22756013 0.45868197
0.16048193 0.22891566 0.45947146
0.16048193 0.22987951 0.45947146
0.16062015 0.23104221 0.45986721
0.16075861 0.2322069 0.46026364
0.16089733 0.2333736 0.46066076
0.16089733 0.23433995 0.46066076
0.16117546 0.23571305 0.46145707
0.16117546 0.23668107 0.46145707
0.16117546 0.2376491 0.46145707
0.16117546 0.23861711 0.46145707
0.16117546 0.23958513 0.46145707
0.16117546 0.24055316 0.46145707
0.16131487 0.24173011 0.46185625
0.16131487 0.24269897 0.46185625
0.16145454 0.24387878 0.46225613
0.16159445 0.24506065 0.46265671
0.16187499 0.24645834 0.46345991
0.16187499 0.24743056 0.46345991
0.16187499 0.24840277 0.46345991
0.16034395 0.2672399 0.45907637
0.16034395 0.26820293 0.45907637
0.16048193 0.26939759 0.45947146
0.16062015 0.27059433 0.45986721
0.16062015 0.27348837 0.45986721
0.16034395 0.27398109 0.45907637
0.16006868 0.27447212 0.45828825
0.15979435 0.27496144 0.45750284
0.15965754 0.27568492 0.45711115
0.15952095 0.27640718 0.45672011
0.15938461 0.27712822 0.45632976
0.15952095 0.27832335 0.45672011
0.15952095 0.27928144 0.45672011
0.15938461 0.28 0.45632976
0.15938461 0.28095725 0.45632976
0.1592485 0.28167379 0.45594007
0.1592485 0.28263023 0.45594007
0.15911263 0.28334472 0.45555106
0.15911263 0.28430033 0.45555106
0.15911263 0.28525597 0.45555106
0.15911263 0.28621161 0.45555106
0.15911263 0.28716722 0.45555106
0.15911263 0.28812286 0.45555106
0.15911263 0.2890785 0.45555106
0.1592485 0.2902818 0.45594007
0.1592485 0.29123825 0.45594007
0.15911263 0.2919454 0.45555106
0.15911263 0.29290101 0.45555106
0.15897699 0.29360613 0.45516267
0.15897699 0.29456097 0.45516267
0.15884157 0.29526407 0.45477498
0.15897699 0.29647058 0.45516267
0.15897699 0.29742542 0.45516267
0.15911263 0.29863483 0.45555106
0.1592485 0.29984629 0.45594007
0.1592485 0.30080274 0.45594007
0.1592485 0.30175918 0.45594007
0.15911263 0.30245733 0.45555106
0.26385373 0.25755274 0.75092238
0.26348314 0.25876406 0.74986774
0.26311362 0.25997195 0.74881601
0.26348314 0.26191011 0.74986774
0.26348314 0.26348314 0.74986774
0.26385373 0.26542896 0.75092238
0.26422536 0.26738027 0.75198007
0.26497176 0.26971751 0.75410426
0.15804549 0.16936815 0.44979429
0.15777965 0.17002523 0.4490377
0.15764706 0.17082353 0.44866037
0.15764706 0.1717647 0.44866037
0.15764706 0.17270589 0.44866037
0.15777965 0.17379311 0.4490377
0.15777965 0.17473507 0.4490377
0.15777965 0.17567705 0.4490377
0.15764706 0.17647059 0.44866037
0.15764706 0.17741176 0.44866037
0.15777965 0.17850295 0.4490377
0.15764706 0.17929412 0.44866037
0.15764706 0.1802353 0.44866037
0.15751469 0.18102434 0.44828364
0.15751469 0.18196474 0.44828364
0.15738255 0.18275167 0.44790757
0.15738255 0.18369128 0.44790757
0.15738255 0.18463087 0.44790757
0.15725063 0.18541493 0.44753212
0.15738255 0.18651007 0.44790757
0.15725063 0.18729255 0.44753212
0.15725063 0.18823135 0.44753212
0.15725063 0.18917015 0.44753212
0.15725063 0.19010897 0.44753212
0.15725063 0.19104777 0.44753212
0.15725063 0.19198659 0.44753212
0.15725063 0.19292539 0.44753212
0.15725063 0.19386421 0.44753212
0.15738255 0.19496645 0.44790757
0.15738255 0.19590604 0.44790757
0.15738255 0.19684564 0.44790757
0.15738255 0.19778523 0.44790757
0.15751469 0.19889168 0.44828364
0.15764706 0.2 0.44866037
0.15777965 0.20111017 0.4490377
0.15777965 0.20205215 0.4490377
0.15791246 0.20316498 0.44941568
0.15804549 0.20427969 0.44979429
0.15804549 0.20522325 0.44979429
0.15804549 0.2061668 0.44979429
0.15817875 0.20728499 0.45017356
0.15817875 0.20822935 0.45017356
0.15817875 0.20917369 0.45017356
0.15831223 0.21029536 0.45055345
0.15857989 0.21159764 0.45131516
0.15857989 0.21254438 0.45131516
0.15857989 0.21349113 0.45131516
0.15871404 0.21461929 0.45169699
0.15871404 0.21556683 0.45169699
0.15871404 0.21651438 0.45169699
0.15871404 0.21746193 0.45169699
0.15871404 0.21840948 0.45169699
0.15871404 0.21935703 0.45169699
0.15871404 0.22030456 0.45169699
0.15871404 0.22125211 0.45169699
0.15898305 0.22257628 0.45246255
0.15911789 0.22371501 0.45284635
0.15925297 0.22485569 0.45323074
0.15938827 0.2259983 0.45361581
0.15965958 0.22733617 0.45438793
0.16116838 0.23140894 0.45868197
0.16158484 0.23297158 0.45986721
0.16172414 0.23413794 0.46026364
0.16186367 0.23530629 0.46066076
0.16186367 0.23627265 0.46066076
0.16200346 0.23744386 0.46105859
0.16200346 0.23841105 0.46105859
0.16200346 0.23937824 0.46105859
0.16200346 0.24034542 0.46105859
0.16214347 0.24152118 0.46145707
0.16228373 0.24269897 0.46185625
0.16228373 0.24366783 0.46185625
0.16242424 0.24484849 0.46225613
0.16270599 0.24624458 0.46305797
0.16284722 0.24743056 0.46345991
0.16284722 0.24840277 0.46345991
0.16256499 0.24894281 0.46265671
0.16116838 0.2670103 0.45868197
0.16116838 0.2679725 0.45868197
0.16130696 0.26916596 0.45907637
0.16130696 0.27012897 0.45907637
0.16130696 0.271092 0.45907637
0.16130696 0.27205503 0.45907637
0.16144578 0.27325302 0.45947146
0.16116838 0.27374572 0.45868197
0.16103004 0.27447212 0.45828825
0.16075407 0.27496144 0.45750284
0.16061644 0.27568492 0.45711115
0.16047904 0.27640718 0.45672011
0.16034187 0.27712822 0.45632976
0.16034187 0.27808547 0.45632976
0.16034187 0.27904272 0.45632976
0.16020495 0.2797609 0.45594007
0.16006826 0.28047782 0.45555106
0.15993179 0.28119352 0.45516267
0.15993179 0.28214833 0.45516267
0.15993179 0.28310317 0.45516267
0.15993179 0.28405797 0.45516267
0.15979557 0.28477001 0.45477498
0.15979557 0.28572401 0.45477498
0.15979557 0.28667802 0.45477498
0.15979557 0.28763202 0.45477498
0.15993179 0.28883207 0.45516267
0.15993179 0.28978688 0.45516267
0.15993179 0.29074168 0.45516267
0.16006826 0.2919454 0.45555106
0.15993179 0.29265133 0.45516267
0.15993179 0.29360613 0.45516267
0.15993179 0.29456097 0.45516267
0.15979557 0.29526407 0.45477498
0.15993179 0.29647058 0.45516267
0.16006826 0.29767919 0.45555106
0.16006826 0.29863483 0.45555106
0.16020495 0.29984629 0.45594007
0.16020495 0.30080274 0.45594007
0.16020495 0.30175918 0.45594007
0.16006826 0.30245733 0.45555106
0.26542896 0.25755274 0.75092238
0.26542896 0.25912797 0.75092238
0.26505619 0.26033708 0.74986774
0.26505619 0.26191011 0.74986774
0.26505619 0.26348314 0.74986774
0.26542896 0.26542896 0.75092238
0.26542896 0.26700422 0.75092238
0.26655367 0.26971751 0.75410426
0.26655367 0.27129942 0.75410426
0.26655367 0.27288136 0.75410426
0.15872161 0.17002523 0.4490377
0.15858823 0.17082353 0.44866037
0.15845507 0.17162049 0.44828364
0.15858823 0.17270589 0.44866037
0.15872161 0.17379311 0.4490377
0.15872161 0.17473507 0.4490377
0.15858823 0.17552941 0.44866037
0.15858823 0.17647059 0.44866037
0.15858823 0.17741176 0.44866037
0.15858823 0.17835294 0.44866037
0.15858823 0.17929412 0.44866037
0.15858823 0.1802353 0.44866037
0.15845507 0.18102434 0.44828364
0.15845507 0.18196474 0.44828364
0.15832214 0.18275167 0.44790757
0.15832214 0.18369128 0.44790757
0.15832214 0.18463087 0.44790757
0.15818945 0.18541493 0.44753212
0.15832214 0.18651007 0.44790757
0.15818945 0.18729255 0.44753212
0.15818945 0.18823135 0.44753212
0.15818945 0.18917015 0.44753212
0.15818945 0.19010897 0.44753212
0.15818945 0.19104777 0.44753212
0.15818945 0.19198659 0.44753212
0.15818945 0.19292539 0.44753212
0.15818945 0.19386421 0.44753212
0.15832214 0.19496645 0.44790757
0.15832214 0.19590604 0.44790757
0.15832214 0.19684564 0.44790757
0.15832214 0.19778523 0.44790757
0.15832214 0.19872484 0.44790757
0.15845507 0.19983207 0.44828364
0.15845507 0.20077246 0.44828364
0.15845507 0.20171285 0.44828364
0.15858823 0.20282353 0.44866037
0.15858823 0.20376471 0.44866037
0.15858823 0.20470588 0.44866037
0.15858823 0.20564707 0.44866037
0.15872161 0.20676199 0.4490377
0.15872161 0.20770395 0.4490377
0.15858823 0.20847058 0.44866037
0.15858823 0.20941177 0.44866037
0.15872161 0.21052986 0.4490377
0.15858823 0.21129411 0.44866037
0.15872161 0.21241379 0.4490377
0.15872161 0.21335576 0.4490377
0.15898904 0.2146588 0.44979429
0.15898904 0.21560235 0.44979429
0.15885521 0.21636364 0.44941568
0.15885521 0.21730639 0.44941568
0.15885521 0.21824916 0.44941568
0.15898904 0.21937658 0.44979429
0.15898904 0.22032014 0.44979429
0.15898904 0.22126369 0.44979429
0.15925738 0.22258228 0.45055345
0.15966159 0.22409475 0.45169699
0.15979679 0.22523285 0.45207945
0.16006786 0.22656488 0.45284635
0.16033985 0.22790144 0.45361581
0.16061276 0.22924255 0.45438793
0.16213058 0.23333333 0.45868197
0.16268966 0.23510344 0.46026364
0.16268966 0.23606896 0.46026364
0.16283002 0.237239 0.46066076
0.16283002 0.23820534 0.46066076
0.16297063 0.23937824 0.46105859
0.16297063 0.24034542 0.46105859
0.16311149 0.24152118 0.46145707
0.16325259 0.24269897 0.46185625
0.16339394 0.24387878 0.46225613
0.16339394 0.24484849 0.46225613
0.16353554 0.24603119 0.46265671
0.16339394 0.24678788 0.46225613
0.16339394 0.24775757 0.46225613
0.16339394 0.24872728 0.46225613
0.16185249 0.26655233 0.45789522
0.16185249 0.26751286 0.45789522
0.16199142 0.26870385 0.45828825
0.16185249 0.26943398 0.45789522
0.16171379 0.27016282 0.45750284
0.16185249 0.27135506 0.45789522
0.16199142 0.27254936 0.45828825
0.16171379 0.27304199 0.45750284
0.16157535 0.27376711 0.45711115
0.16143712 0.27449101 0.45672011
0.16129914 0.27521369 0.45632976
0.16116141 0.27593508 0.45594007
0.16116141 0.27689156 0.45594007
0.16129914 0.27808547 0.45632976
0.16129914 0.27904272 0.45632976
0.16129914 0.28 0.45632976
0.16129914 0.28095725 0.45632976
0.16129914 0.28191453 0.45632976
0.16129914 0.28287178 0.45632976
0.16116141 0.28358668 0.45594007
0.16116141 0.28454313 0.45594007
0.16102389 0.28525597 0.45555106
0.16102389 0.28621161 0.45555106
0.16102389 0.28716722 0.45555106
0.16102389 0.28812286 0.45555106
0.16102389 0.2890785 0.45555106
0.16102389 0.29003412 0.45555106
0.16102389 0.29098976 0.45555106
0.16102389 0.2919454 0.45555106
0.16102389 0.29290101 0.45555106
0.16088662 0.29360613 0.45516267
0.16074957 0.29431006 0.45477498
0.16074957 0.29526407 0.45477498
0.16074957 0.29621807 0.45477498
0.16088662 0.29742542 0.45516267
0.16088662 0.29838023 0.45516267
0.16102389 0.29959044 0.45555106
0.16116141 0.30080274 0.45594007
0.16116141 0.30175918 0.45594007
0.16102389 0.30245733 0.45555106
0.26700422 0.25755274 0.75092238
0.26700422 0.25912797 0.75092238
0.26662922 0.26033708 0.74986774
0.26662922 0.26191011 0.74986774
0.26662922 0.26348314 0.74986774
0.26662922 0.26505619 0.74986774
0.26700422 0.26700422 0.75092238
0.26775742 0.26933709 0.75304067
0.26775742 0.27091679 0.75304067
0.26775742 0.27249646 0.75304067
0.16060914 0.17103215 0.45169699
0.16033784 0.17168918 0.45093396
0.16020253 0.17248945 0.45055345
0.16033784 0.17358108 0.45093396
0.16033784 0.17452703 0.45093396
0.16020253 0.1753249 0.45055345
0.1599326 0.17597304 0.44979429
0.15979798 0.17676768 0.44941568
0.15979798 0.17771044 0.44941568
0.15979798 0.1786532 0.44941568
0.15966359 0.17944491 0.4490377
0.15966359 0.18038689 0.4490377
0.15952942 0.18117647 0.44866037
0.15952942 0.18211764 0.44866037
0.15939547 0.18290512 0.44828364
0.15939547 0.18384551 0.44828364
0.15939547 0.18478589 0.44828364
0.15926175 0.18557046 0.44790757
0.15926175 0.18651007 0.44790757
0.15926175 0.18744966 0.44790757
0.15912825 0.18823135 0.44753212
0.15912825 0.18917015 0.44753212
0.15912825 0.19010897 0.44753212
0.15926175 0.19120805 0.44790757
0.15926175 0.19214766 0.44790757
