# .PCD v0.7 - Point Cloud Data file format
VERSION 0.7
FIELDS x y z
SIZE 4 4 4
TYPE F F F
COUNT 1 1 1
WIDTH 1447
HEIGHT 1
VIEWPOINT 0 0 0 1 0 0 0
POINTS 1447
DATA ascii
-0.31022727 0.73022729 1.5167779
-0.31022727 0.73340911 1.5167779
-0.30847457 0.73242939 1.5082085
-0.30760562 0.7335211 1.5039601
-0.30588236 0.73254901 1.4955345
-0.30588236 0.7356863 1.4955345
-0.30588236 0.73882353 1.4955345
-0.30588236 0.74196076 1.4955345
-0.30502793 0.74301678 1.4913571
-0.30417827 0.74406683 1.4872029
-0.30333334 0.74511111 1.4830717
-0.30333334 0.74822223 1.4830717
-0.30249307 0.74925208 1.4789635
-0.30165747 0.75027627 1.474878
-0.30165747 0.75337017 1.474878
-0.30082646 0.75438017 1.4708149
-0.30082646 0.75746554 1.4708149
-0.30082646 0.76055098 1.4708149
-0.30000001 0.76153845 1.4667742
-0.30000001 0.76461536 1.4667742
-0.29917809 0.76558906 1.4627557
-0.29836065 0.7665574 1.4587591
-0.29673913 0.7654348 1.4508311
-0.29593495 0.76639569 1.4468993
-0.29433963 0.76528305 1.4390993
-0.29354838 0.76623654 1.4352307
-0.29276139 0.76718497 1.4313829
-0.29120001 0.76608002 1.4237489
-0.29120001 0.76906669 1.4237489
-0.29042554 0.76999998 1.4199623
-0.29042554 0.77297872 1.4199623
-0.28965518 0.7738992 1.4161959
-0.2888889 0.77481484 1.4124492
-0.28812665 0.7757256 1.4087225
-0.28812665 0.77868074 1.4087225
-0.28736842 0.77957892 1.4050153
-0.28661418 0.78047246 1.4013276
-0.28586388 0.78136128 1.3976592
-0.28511751 0.78224546 1.3940099
-0.28511751 0.78516972 1.3940099
-0.28437501 0.78604168 1.3903798
-0.28363636 0.7869091 1.3867683
-0.28290156 0.787772 1.3831757
-0.28217053 0.78863049 1.3796016
-0.28217053 0.79152453 1.3796016
-0.2814433 0.79237115 1.3760459
-0.28071979 0.79321337 1.3725085
-0.28 0.79405129 1.3689893
-0.28 0.7969231 1.3689893
-0.27928388 0.79774934 1.3654881
-1.1497872 -0.24425532 5.6798491
-1.1376842 -0.22989474 5.6200614
-1.1376842 -0.21810526 5.6200614
-1.1258334 -0.20416667 5.5615191
-1.1142268 -0.19051546 5.5041838
-1.1028571 -0.17714286 5.4480186
-1.0917171 -0.1640404 5.3929882
-1.0808001 -0.1512 5.3390584
-1.070099 -0.13861386 5.2861962
-1.070099 -0.12752475 5.2861962
-1.0596079 -0.11529412 5.2343707
-1.0596079 -0.10431372 5.2343707
-1.0493203 -0.092427187 5.1835518
-1.0392308 -0.080769233 5.1337099
-1.0293334 -0.06933333 5.0848174
-1.0293334 -0.058666665 5.0848174
-1.0293334 -0.048 5.0848174
-1.0196227 -0.036981132 5.0368476
-1.0100935 -0.026168223 4.9897742
-1.0100935 -0.015700934 4.9897742
-1.0007408 -0.005185185 4.9435725
-1.0007408 0.005185185 4.9435725
-0.99155962 0.015412844 4.8982186
-0.99155962 0.025688073 4.8982186
-0.98254544 0.035636365 4.8536892
-0.98254544 0.045818184 4.8536892
-0.97369367 0.055495497 4.8099623
-0.97369367 0.065585583 4.8099623
-0.96499997 0.075000003 4.7670164
-0.97369367 0.085765764 4.8099623
-0.98254544 0.096727274 4.8536892
-0.98254544 0.10690909 4.8536892
-0.95646018 0.1139823 4.7248302
-0.73027027 0.45027027 3.6074717
-0.72053331 0.45173332 3.5593722
-0.15158485 0.10603086 0.74881601
-0.15137255 0.10745098 0.74776727
-0.15116084 0.10886713 0.74672145
-0.15094972 0.11027933 0.74567854
-0.15052925 0.11153203 0.74360144
-0.14969529 0.11246537 0.73948175
-0.14907587 0.11354483 0.73642182
-0.14887053 0.11493113 0.73540747
-0.14866576 0.11631361 0.73439592
-0.14846154 0.11769231 0.73338711
-0.14825788 0.11906721 0.73238111
-0.14825788 0.12060357 0.73238111
-0.14805479 0.12197261 0.73137784
-0.14785226 0.12333789 0.73037732
-0.14765027 0.12469945 0.72937953
-0.14744884 0.1260573 0.72838449
-0.14704762 0.12723809 0.72640246
-0.14684783 0.12858696 0.72541553
-0.14664857 0.12993215 0.72443122
-0.14644986 0.13127372 0.72344965
-0.14605406 0.13243243 0.72149438
-0.14566037 0.1335849 0.71954966
-0.14546433 0.13491252 0.7185812
-0.14526881 0.13623656 0.71761537
-0.14507383 0.13755704 0.7166521
-0.1446854 0.13868809 0.71473336
-0.1446854 0.14018741 0.71473336
-0.14429906 0.14130841 0.71282488
-0.14429906 0.14280374 0.71282488
-0.14410667 0.14410667 0.71187443
-0.14410667 0.14560001 0.71187443
-0.1437234 0.14670213 0.70998114
-0.14353253 0.14799468 0.70903826
-0.14334218 0.14928383 0.70809793
-0.14296296 0.15037037 0.70622462
-0.14277411 0.15165125 0.70529169
-0.14258575 0.15292875 0.70436126
-0.1423979 0.15420289 0.70343322
-0.14202365 0.15526938 0.70158452
-0.14202365 0.15674113 0.70158452
-0.14183727 0.15800525 0.70066381
-0.12745284 0.18820755 0.62960595
-0.12715293 0.18908235 0.62812448
-0.12715293 0.1904 0.62812448
-0.12715293 0.19171765 0.62812448
-0.12700352 0.19280846 0.62738639
-0.12655738 0.19344263 0.62518245
-0.12640935 0.19452631 0.62445128
-0.12626168 0.19560748 0.62372178
-0.12626168 0.19691589 0.62372178
-0.12611435 0.197993 0.62299395
-0.12582073 0.19883585 0.62154347
-0.12567441 0.19990698 0.6208207
-0.12538283 0.20074245 0.6193803
-0.12523754 0.20180765 0.6186626
-0.1250926 0.20287037 0.61794657
-0.12480369 0.20369515 0.61651945
-0.12451613 0.20451613 0.61509889
-0.12422989 0.20533334 0.61368483
-0.12394495 0.20614679 0.61227733
-0.12366132 0.20695652 0.61087626
-0.12337899 0.20776255 0.60948151
-0.12281818 0.20809092 0.60671115
-0.12226244 0.20841628 0.60396588
-0.12184893 0.20897406 0.60192317
-0.1215748 0.20976378 0.60056901
-0.12143821 0.21078652 0.59989417
-0.1213019 0.21180695 0.59922093
-0.12103023 0.21258679 0.59787887
-0.12075978 0.21336313 0.59654284
-0.120625 0.214375 0.59587705
-0.12049052 0.21538462 0.59521276
-0.12022247 0.21615128 0.59388858
-0.12008889 0.21715556 0.5932287
-0.11995561 0.2181576 0.5925703
-0.11968992 0.21891473 0.59125781
-0.11955752 0.2199115 0.59060377
-0.11942542 0.22090608 0.58995122
-0.11903084 0.22140969 0.58800203
-0.11863886 0.22190998 0.58606565
-0.11799127 0.2219214 0.58286661
-0.1178626 0.22290076 0.58223099
-0.11437037 0.22222222 0.56497973
-0.11376842 0.22223158 0.56200612
-0.11341029 0.22270724 0.56023699
-0.11305439 0.22317992 0.55847889
-0.11258333 0.22341667 0.55615193
-0.1122326 0.2238837 0.55441934
-0.112 0.22458032 0.55327028
-0.11188406 0.22550724 0.55269754
-0.11188406 0.22666667 0.55269754
-0.11176836 0.22759049 0.55212599
-0.32359281 0.70586824 1.5985204
-0.32359281 0.70922154 1.5985204
-0.32456458 0.71471471 1.6033208
-0.32456458 0.71807808 1.6033208
-0.32359281 0.71928144 1.5985204
-0.32071218 0.72284865 1.5842903
-0.3197633 0.72402364 1.5796031
-0.31882006 0.72519171 1.5749434
-0.31788236 0.72635293 1.5703113
-0.31695014 0.72750735 1.5657063
-0.31418604 0.72441858 1.5520518
-0.31327537 0.7255652 1.5475532
-0.31236994 0.72670519 1.5430804
-0.31146973 0.72783864 1.5386335
-0.31057471 0.72896552 1.5342121
-0.30968481 0.73008597 1.5298162
-0.30792022 0.7291168 1.5210992
-0.30792022 0.73230767 1.5210992
-0.30792022 0.73549855 1.5210992
-0.30617565 0.73450422 1.5124811
-0.30445069 0.7335211 1.5039601
-0.30359551 0.73460674 1.4997355
-0.30359551 0.7377528 1.4997355
-0.3027451 0.73882353 1.4955345
-0.3027451 0.74196076 1.4955345
-0.30189943 0.74301678 1.4913571
-0.3010585 0.74406683 1.4872029
-0.30022222 0.74511111 1.4830717
-0.30022222 0.74822223 1.4830717
-0.29939058 0.74925208 1.4789635
-0.29856354 0.75027627 1.474878
-0.29856354 0.75337017 1.474878
-0.29774106 0.75438017 1.4708149
-0.29692307 0.75538462 1.4667742
-0.29692307 0.75846153 1.4667742
-0.29692307 0.76153845 1.4667742
-0.29610959 0.76252055 1.4627557
-0.29530054 0.76349729 1.4587591
-0.29449591 0.76446867 1.4547843
-0.29369566 0.7654348 1.4508311
-0.29289973 0.76639569 1.4468993
-0.29132074 0.76528305 1.4390993
-0.29053763 0.76623654 1.4352307
-0.28975871 0.76718497 1.4313829
-0.28821334 0.76608002 1.4237489
-0.28821334 0.76906669 1.4237489
-0.28821334 0.77205336 1.4237489
-0.2874468 0.77297872 1.4199623
-0.28668436 0.7738992 1.4161959
-0.28668436 0.77687001 1.4161959
-0.28592592 0.77777779 1.4124492
-0.28517151 0.77868074 1.4087225
-0.28442106 0.77957892 1.4050153
-0.28442106 0.78252631 1.4050153
-0.28367454 0.7834121 1.4013276
-0.28293192 0.78429317 1.3976592
-0.28219321 0.78516972 1.3940099
-0.28219321 0.78809398 1.3940099
-0.28145835 0.78895831 1.3903798
-0.28072727 0.78981817 1.3867683
-0.28072727 0.79272729 1.3867683
-0.28 0.79357511 1.3831757
-0.27927649 0.79441863 1.3796016
-0.27927649 0.79731268 1.3796016
-0.2785567 0.79814434 1.3760459
-0.27784061 0.79897171 1.3725085
-0.27712822 0.79979485 1.3689893
-1.1378723 -0.24425532 5.6798491
-1.1378723 -0.23234043 5.6798491
-1.1258948 -0.21810526 5.6200614
-1.1258948 -0.20631579 5.6200614
-1.1141666 -0.1925 5.5615191
-1.1026804 -0.17896907 5.5041838
-1.0914285 -0.16571428 5.4480186
-1.080404 -0.15272728 5.3929882
-1.0696 -0.14 5.3390584
-1.0696 -0.1288 5.3390584
-1.0590099 -0.11643565 5.2861962
-1.0486275 -0.10431372 5.2343707
-1.0384465 -0.092427187 5.1835518
-1.0384465 -0.0815534 5.1835518
-1.0284616 -0.07 5.1337099
-1.0186666 -0.058666665 5.0848174
-1.0186666 -0.048 5.0848174
-1.0090566 -0.036981132 5.0368476
-0.99962616 -0.026168223 4.9897742
-0.99962616 -0.015700934 4.9897742
-0.99962616 -0.005233645 4.9897742
-0.99962616 0.005233645 4.9897742
-0.99037039 0.015555556 4.9435725
-0.99037039 0.025925925 4.9435725
-0.98128438 0.035963304 4.8982186
-0.97236365 0.045818184 4.8536892
-0.97236365 0.056000002 4.8536892
-0.97236365 0.066181816 4.8536892
-0.96360362 0.075675674 4.8099623
-0.97236365 0.086545452 4.8536892
-0.97236365 0.096727274 4.8536892
-0.97236365 0.10690909 4.8536892
-0.71785235 0.44724831 3.5832605
-0.7083444 0.44874173 3.5358002
-0.71306664 0.45919999 3.5593722
-0.71785235 0.46979865 3.5832605
-0.7083444 0.47099337 3.5358002
-0.7083444 0.4784106 3.5358002
-0.15001403 0.10760168 0.74881601
-0.14980392 0.10901961 0.74776727
-0.14938548 0.11027933 0.74567854
-0.14896935 0.11153203 0.74360144
-0.14834951 0.11262136 0.74050736
-0.14773481 0.11370166 0.73743898
-0.14732783 0.11493113 0.73540747
-0.14712517 0.11631361 0.73439592
-0.14692308 0.11769231 0.73338711
-0.14672154 0.11906721 0.73238111
-0.14672154 0.12060357 0.73238111
-0.14652056 0.12197261 0.73137784
-0.14652056 0.12350685 0.73137784
-0.1463201 0.12487004 0.73037732
-0.14612022 0.12622951 0.72937953
-0.14572208 0.12741144 0.72739214
-0.14552382 0.1287619 0.72640246
-0.14512891 0.12993215 0.72443122
-0.14493226 0.13127372 0.72344965
-0.14473613 0.13261163 0.7224707
-0.14434548 0.13376518 0.72052068
-0.14395693 0.13491252 0.7185812
-0.14376344 0.13623656 0.71761537
-0.14357047 0.13755704 0.7166521
-0.14337802 0.13887399 0.71569145
-0.14318608 0.14018741 0.71473336
-0.14299466 0.14149733 0.71377784
-0.14280374 0.14280374 0.71282488
-0.14261334 0.14410667 0.71187443
-0.14261334 0.14560001 0.71187443
-0.14242344 0.14689746 0.71092653
-0.14223404 0.1481915 0.70998114
-0.14204516 0.14948207 0.70903826
-0.14185676 0.15076923 0.70809793
-0.14166887 0.15205298 0.70716006
-0.14148147 0.15333334 0.70622462
-0.14129458 0.15461031 0.70529169
-0.14110819 0.15588391 0.70436126
-0.14092226 0.15715414 0.70343322
-0.14036745 0.15947506 0.70066381
-0.12628099 0.19107439 0.63034928
-0.12598351 0.19194347 0.62886435
-0.12568742 0.19280846 0.62738639
-0.12539274 0.19366941 0.62591541
-0.1252459 0.19475409 0.62518245
-0.1252459 0.19606557 0.62518245
-0.12509942 0.19714619 0.62445128
-0.12480747 0.197993 0.62299395
-0.124662 0.19906759 0.62226784
-0.12437209 0.19990698 0.6208207
-0.12408353 0.20074245 0.6193803
-0.12393975 0.20180765 0.6186626
-0.1237963 0.20287037 0.61794657
-0.12351039 0.20369515 0.61651945
-0.12322581 0.20451613 0.61509889
-0.12294253 0.20533334 0.61368483
-0.12266055 0.20614679 0.61227733
-0.12252004 0.20719358 0.61157596
-0.12224 0.208 0.61017811
-0.12168373 0.20832765 0.60740137
-0.12099548 0.20841628 0.60396588
-0.12058625 0.20897406 0.60192317
-0.12031496 0.20976378 0.60056901
-0.12017977 0.21078652 0.59989417
-0.12004489 0.21180695 0.59922093
-0.11991031 0.21282512 0.59854913
-0.11964206 0.21360178 0.59721011
-0.119375 0.214375 0.59587705
-0.11910913 0.21514477 0.59454989
-0.11897664 0.21615128 0.59388858
-0.11871254 0.21691453 0.5925703
-0.11858093 0.21791574 0.59191334
-0.11844961 0.21891473 0.59125781
-0.11831859 0.2199115 0.59060377
-0.11805739 0.22066225 0.58930004
-0.11766776 0.22116612 0.58735514
-0.11715224 0.22142388 0.58478183
-0.11664122 0.22167939 0.58223099
-0.11651416 0.22265795 0.58159673
-0.11638737 0.22363439 0.58096391
-0.11588299 0.22387865 0.57844621
-0.11306554 0.22198732 0.56438249
-0.11247108 0.2219979 0.5614152
-0.11223505 0.22270724 0.56023699
-0.112 0.22341362 0.55906367
-0.11164927 0.22388309 0.55731297
-0.11118503 0.22411643 0.55499566
-0.11083938 0.22458032 0.55327028
-0.11072464 0.22550724 0.55269754
-0.11083938 0.22690156 0.55327028
-0.11083938 0.22806218 0.55327028
-0.11095436 0.22946058 0.55384421
-0.32120121 0.70798796 1.6033208
-0.32120121 0.71135134 1.6033208
-0.32120121 0.71471471 1.6033208
-0.32120121 0.71807808 1.6033208
-0.32023951 0.71928144 1.5985204
-0.31928357 0.72047764 1.5937487
-0.31928357 0.72382092 1.5937487
-0.31738871 0.72284865 1.5842903
-0.3164497 0.72402364 1.5796031
-0.3164497 0.7273373 1.5796031
-0.31458825 0.72635293 1.5703113
-0.31366569 0.72750735 1.5657063
-0.31183675 0.72653061 1.5565767
-0.31093022 0.72767442 1.5520518
-0.310029 0.72881162 1.5475532
-0.30824208 0.72783864 1.5386335
-0.30824208 0.73106629 1.5386335
-0.30647564 0.73008597 1.5298162
-0.30472934 0.7291168 1.5210992
-0.30386364 0.73022729 1.5167779
-0.30386364 0.73340911 1.5167779
-0.30300283 0.73450422 1.5124811
-0.30129579 0.7335211 1.5039601
-0.30044943 0.73460674 1.4997355
-0.30044943 0.7377528 1.4997355
-0.29960784 0.73882353 1.4955345
-0.29960784 0.74196076 1.4955345
-0.2979387 0.74094707 1.4872029
-0.2979387 0.74406683 1.4872029
-0.29711112 0.74511111 1.4830717
-0.2962881 0.7461496 1.4789635
-0.29546961 0.74718231 1.474878
-0.29546961 0.75027627 1.474878
-0.29465565 0.75129479 1.4708149
-0.29384616 0.75230771 1.4667742
-0.29384616 0.75538462 1.4667742
-0.29304111 0.75638354 1.4627557
-0.29304111 0.75945204 1.4627557
-0.29304111 0.76252055 1.4627557
-0.29224044 0.76349729 1.4587591
-0.29144415 0.76446867 1.4547843
-0.29065219 0.7654348 1.4508311
-0.28986451 0.76639569 1.4468993
-0.28830189 0.76528305 1.4390993
-0.28752688 0.76623654 1.4352307
-0.28675604 0.76718497 1.4313829
-0.28598931 0.76812834 1.4275557
-0.28522667 0.76906669 1.4237489
-0.28522667 0.77205336 1.4237489
-0.28446808 0.77297872 1.4199623
-0.28371352 0.7738992 1.4161959
-0.28371352 0.77687001 1.4161959
-0.28296295 0.77777779 1.4124492
-0.28221637 0.77868074 1.4087225
-0.2814737 0.77957892 1.4050153
-0.2814737 0.78252631 1.4050153
-0.2807349 0.7834121 1.4013276
-0.28 0.78429317 1.3976592
-0.28 0.78722513 1.3976592
-0.28 0.79015708 1.3976592
-0.27926892 0.79101825 1.3940099
-0.27854165 0.791875 1.3903798
-0.27854165 0.79479164 1.3903798
-0.27781817 0.79563636 1.3867683
-0.27709845 0.79647666 1.3831757
-0.27638242 0.79731268 1.3796016
-0.27567011 0.79814434 1.3760459
-0.27496144 0.79897171 1.3725085
-0.27425641 0.79979485 1.3689893
-1.1259575 -0.24425532 5.6798491
-1.1259575 -0.23234043 5.6798491
-1.1141052 -0.21810526 5.6200614
-1.1141052 -0.20631579 5.6200614
-1.1025 -0.1925 5.5615191
-1.0911341 -0.17896907 5.5041838
-1.08 -0.16571428 5.4480186
-1.069091 -0.15272728 5.3929882
-1.0584 -0.14 5.3390584
-1.0584 -0.1288 5.3390584
-1.0479208 -0.11643565 5.2861962
-1.037647 -0.10431372 5.2343707
-1.0275729 -0.092427187 5.1835518
-1.0176923 -0.080769233 5.1337099
-1.0176923 -0.07 5.1337099
-1.008 -0.058666665 5.0848174
-1.008 -0.048 5.0848174
-0.99849057 -0.036981132 5.0368476
-0.98915887 -0.026168223 4.9897742
-0.98915887 -0.015700934 4.9897742
-0.98915887 -0.005233645 4.9897742
-0.98000002 0.005185185 4.9435725
-0.97100919 0.015412844 4.8982186
-0.97100919 0.025688073 4.8982186
-0.96218181 0.035636365 4.8536892
-0.96218181 0.045818184 4.8536892
-0.96218181 0.056000002 4.8536892
-0.96218181 0.066181816 4.8536892
-0.9535135 0.075675674 4.8099623
-0.96218181 0.086545452 4.8536892
-0.96218181 0.096727274 4.8536892
-0.96218181 0.10690909 4.8536892
-0.70092714 0.4413245 3.5358002
-0.69631577 0.4531579 3.5125384
-0.70560002 0.46666667 3.5593722
-0.70560002 0.47413334 3.5593722
-0.70560002 0.48159999 3.5593722
-0.70560002 0.48906666 3.5593722
-0.14823529 0.10901961 0.74776727
-0.14802797 0.11043356 0.74672145
-0.14740947 0.11153203 0.74360144
-0.14679612 0.11262136 0.74050736
-0.14618784 0.11370166 0.73743898
-0.14598621 0.11508965 0.73642182
-0.14578512 0.11647383 0.73540747
-0.14538461 0.11769231 0.73338711
-0.14518519 0.11906721 0.73238111
-0.14518519 0.12060357 0.73238111
-0.1449863 0.12197261 0.73137784
-0.1449863 0.12350685 0.73137784
-0.14478797 0.12487004 0.73037732
-0.14439291 0.1260573 0.72838449
-0.14419618 0.12741144 0.72739214
-0.14399999 0.1287619 0.72640246
-0.14380434 0.1301087 0.72541553
-0.14360923 0.13145183 0.72443122
-0.14341463 0.13279133 0.72344965
-0.14302702 0.13394594 0.72149438
-0.14264151 0.13509434 0.71954966
-0.14244953 0.13641992 0.7185812
-0.14225806 0.13774194 0.71761537
-0.14206712 0.13906041 0.7166521
-0.14187668 0.14037533 0.71569145
-0.14168675 0.14168675 0.71473336
-0.14149733 0.14299466 0.71377784
-0.14130841 0.14429906 0.71282488
-0.14130841 0.14579439 0.71282488
-0.14093208 0.14689746 0.71092653
-0.14074469 0.1481915 0.70998114
-0.14074469 0.14968085 0.70998114
-0.14055777 0.15096946 0.70903826
-0.14037135 0.15225464 0.70809793
-0.14018543 0.15353642 0.70716006
-0.14 0.15481481 0.70622462
-0.13981506 0.15608983 0.70529169
-0.13981506 0.15756935 0.70529169
-0.13981506 0.15904887 0.70529169
-0.13944665 0.16010541 0.70343322
-0.12540284 0.19175355 0.63258982
-0.12510638 0.19262411 0.63109434
-0.12481132 0.19349056 0.62960595
-0.12451765 0.19435294 0.62812448
-0.12422536 0.19521126 0.62665004
-0.12422536 0.19652583 0.62665004
-0.12407972 0.19760844 0.62591541
-0.12393443 0.19868852 0.62518245
-0.12364486 0.19953272 0.62372178
-0.12335664 0.20037296 0.62226784
-0.12306977 0.20120931 0.6208207
-0.12278422 0.20204176 0.6193803
-0.12264194 0.20310545 0.6186626
-0.12235838 0.20393063 0.61723214
-0.12193549 0.20451613 0.61509889
-0.12165517 0.20533334 0.61368483
-0.1215155 0.20638347 0.61298031
-0.12123711 0.20719358 0.61157596
-0.12096 0.208 0.61017811
-0.12040956 0.20832765 0.60740137
-0.11972851 0.20841628 0.60396588
-0.11945824 0.20920993 0.60260254
-0.11905511 0.20976378 0.60056901
-0.11892135 0.21078652 0.59989417
-0.11878788 0.21180695 0.59922093
-0.11865471 0.21282512 0.59854913
-0.11838926 0.21360178 0.59721011
-0.118125 0.214375 0.59587705
-0.11786191 0.21514477 0.59454989
-0.1176 0.21591111 0.5932287
-0.11733925 0.21667406 0.59191334
-0.1172093 0.21767442 0.59125781
-0.11707965 0.21867257 0.59060377
-0.11682119 0.21942605 0.58930004
-0.11656388 0.22017621 0.58800203
-0.11618003 0.22068056 0.58606565
-0.11579869 0.22118162 0.58414203
-0.11541985 0.22167939 0.58223099
-0.11516866 0.22241567 0.58096391
-0.11491857 0.22314875 0.57970232
-0.11405172 0.22267242 0.57532954
-0.11188161 0.22198732 0.56438249
-0.11117647 0.2217647 0.56082547
-0.1109434 0.2224738 0.55964971
-0.11082722 0.22341362 0.55906367
-0.11059561 0.22411703 0.5578953
-0.11025 0.22458333 0.55615193
-0.10979253 0.22481328 0.55384421
-0.10979253 0.22597511 0.55384421
-0.10990654 0.2273728 0.55441934
-0.11002079 0.22877339 0.55499566
-0.11002079 0.22993763 0.55499566
-0.11002079 0.23110187 0.55499566
-0.31783783 0.70462465 1.6033208
-0.31688622 0.70586824 1.5985204
-0.31688622 0.70922154 1.5985204
-0.31688622 0.71257484 1.5985204
-0.31594029 0.71379107 1.5937487
-0.315 0.71499997 1.5890055
-0.3131361 0.71408284 1.5796031
-0.3131361 0.71739644 1.5796031
-0.31221238 0.71858406 1.5749434
-0.31129411 0.71976471 1.5703113
-0.31038123 0.72093844 1.5657063
-0.30947369 0.72210526 1.5611281
-0.30857143 0.72326529 1.5565767
-0.30767441 0.72441858 1.5520518
-0.3067826 0.7255652 1.5475532
-0.30589595 0.72670519 1.5430804
-0.30413795 0.72574711 1.5342121
-0.30413795 0.72896552 1.5342121
-0.30239999 0.72799999 1.5254452
-0.30068183 0.72704548 1.5167779
-0.30068183 0.73022729 1.5167779
-0.30153847 0.73549855 1.5210992
-0.29983002 0.73450422 1.5124811
-0.29898304 0.7355932 1.5082085
-0.29730338 0.73460674 1.4997355
-0.29730338 0.7377528 1.4997355
-0.29730338 0.74089885 1.4997355
-0.29647058 0.74196076 1.4955345
-0.29564247 0.74301678 1.4913571
-0.29481894 0.74406683 1.4872029
-0.294 0.74511111 1.4830717
-0.294 0.74822223 1.4830717
-0.29318559 0.74925208 1.4789635
-0.29237568 0.75027627 1.474878
-0.29237568 0.75337017 1.474878
-0.29157025 0.75438017 1.4708149
-0.29076922 0.75538462 1.4667742
-0.29076922 0.75846153 1.4667742
-0.2899726 0.75945204 1.4627557
-0.2899726 0.76252055 1.4627557
-0.28918034 0.76349729 1.4587591
-0.28839236 0.76446867 1.4547843
-0.28760868 0.7654348 1.4508311
-0.28682926 0.76639569 1.4468993
-0.28605404 0.76735133 1.4429888
-0.28528303 0.7683019 1.4390993
-0.28451613 0.76924729 1.4352307
-0.28299466 0.76812834 1.4275557
-0.28299466 0.77112299 1.4275557
-0.28224 0.77205336 1.4237489
-0.28148937 0.77297872 1.4199623
-0.2807427 0.7738992 1.4161959
-0.2807427 0.77687001 1.4161959
-0.28 0.77777779 1.4124492
-0.2792612 0.77868074 1.4087225
-0.27852631 0.77957892 1.4050153
-0.27852631 0.78252631 1.4050153
-0.27852631 0.7854737 1.4050153
-0.27779528 0.78635168 1.4013276
-0.27706805 0.78722513 1.3976592
-0.27706805 0.79015708 1.3976592
-0.27706805 0.79308903 1.3976592
-0.27634466 0.79394257 1.3940099
-0.27562499 0.79479164 1.3903798
-0.27562499 0.79770833 1.3903798
-0.27490908 0.79854548 1.3867683
-0.27490908 0.80145454 1.3867683
-0.27419689 0.80227977 1.3831757
-0.27419689 0.80518132 1.3831757
-0.27348837 0.80599481 1.3796016
-1.1140425 -0.24425532 5.6798491
-1.1140425 -0.23234043 5.6798491
-1.1023158 -0.21810526 5.6200614
-1.0908333 -0.20416667 5.5615191
-1.0795876 -0.19051546 5.5041838
-1.0685714 -0.17714286 5.4480186
-1.0577778 -0.1640404 5.3929882
-1.0472 -0.1512 5.3390584
-1.0368317 -0.13861386 5.2861962
-1.0368317 -0.12752475 5.2861962
-1.0266666 -0.11529412 5.2343707
-1.0266666 -0.10431372 5.2343707
-1.0166991 -0.092427187 5.1835518
-1.0069231 -0.080769233 5.1337099
-1.0069231 -0.07 5.1337099
-0.99733335 -0.058666665 5.0848174
-0.99733335 -0.048 5.0848174
-0.98792452 -0.036981132 5.0368476
-0.97869158 -0.026168223 4.9897742
-0.97869158 -0.015700934 4.9897742
-0.97869158 -0.005233645 4.9897742
-0.96962965 0.005185185 4.9435725
-0.96962965 0.015555556 4.9435725
-0.96073395 0.025688073 4.8982186
-0.96073395 0.035963304 4.8982186
-0.95200002 0.045818184 4.8536892
-0.95200002 0.056000002 4.8536892
-0.95200002 0.066181816 4.8536892
-0.94342345 0.075675674 4.8099623
-0.95200002 0.086545452 4.8536892
-0.95200002 0.10690909 4.8536892
-0.68894738 0.42368421 3.5125384
-0.68894738 0.43842104 3.5125384
-0.68894738 0.46789473 3.5125384
-0.69350994 0.4784106 3.5358002
-0.69350994 0.4858278 3.5358002
-0.14666666 0.11058824 0.74776727
-0.14625698 0.11184358 0.74567854
-0.14544444 0.11277778 0.74153584
-0.14464088 0.11370166 0.73743898
-0.14444138 0.11508965 0.73642182
-0.14424242 0.11647383 0.73540747
-0.14404401 0.11785419 0.73439592
-0.14384615 0.11923077 0.73338711
-0.14364883 0.12060357 0.73238111
-0.14364883 0.12213992 0.73238111
-0.14345205 0.12350685 0.73137784
-0.14325581 0.12487004 0.73037732
-0.1430601 0.12622951 0.72937953
-0.1426703 0.12741144 0.72739214
-0.14247619 0.1287619 0.72640246
-0.14247619 0.13028571 0.72640246
-0.14228261 0.13163044 0.72541553
-0.14189702 0.13279133 0.72344965
-0.14151351 0.13394594 0.72149438
-0.14113207 0.13509434 0.71954966
-0.14113207 0.13660377 0.71954966
-0.14094213 0.13792732 0.7185812
-0.14056376 0.13906041 0.7166521
-0.14056376 0.14056376 0.7166521
-0.14037533 0.14187668 0.71569145
-0.14018741 0.14318608 0.71473336
-0.14 0.14449199 0.71377784
-0.14 0.1459893 0.71377784
-0.13962667 0.14709334 0.71187443
-0.13944075 0.14838882 0.71092653
-0.13925532 0.14968085 0.70998114
-0.13888595 0.15076923 0.70809793
-0.13870199 0.15205298 0.70716006
-0.13870199 0.15353642 0.70716006
-0.13851851 0.15481481 0.70622462
-0.13833554 0.15608983 0.70529169
-0.13833554 0.15756935 0.70529169
-0.13815303 0.15883905 0.70436126
-0.13797101 0.16010541 0.70343322
-0.13778947 0.16136841 0.70250767
-0.13688889 0.16177778 0.69791609
-0.12437055 0.19220902 0.63409245
-0.12422302 0.19330961 0.63334024
-0.12392899 0.19417751 0.63184124
-0.12349056 0.19481131 0.62960595
-0.12305523 0.19544066 0.62738639
-0.12305523 0.19675675 0.62738639
-0.1229108 0.19784038 0.62665004
-0.1227667 0.19892146 0.62591541
-0.12233645 0.19953272 0.62372178
-0.12205128 0.20037296 0.62226784
-0.12176744 0.20120931 0.6208207
-0.12134415 0.20180765 0.6186626
-0.12106358 0.20263584 0.61723214
-0.12078431 0.2034602 0.61580831
-0.12050633 0.20428078 0.61439103
-0.12036782 0.20533334 0.61368483
-0.12009174 0.20614679 0.61227733
-0.11995418 0.20719358 0.61157596
-0.11968 0.208 0.61017811
-0.11913538 0.20832765 0.60740137
-0.1185957 0.20865232 0.60464984
-0.11819413 0.20920993 0.60260254
-0.11792793 0.20999999 0.60124528
-0.11766292 0.21078652 0.59989417
-0.11753087 0.21180695 0.59922093
-0.1173991 0.21282512 0.59854913
-0.11713646 0.21360178 0.59721011
-0.1167447 0.214136 0.59521276
-0.11648498 0.21490546 0.59388858
-0.11622641 0.21567148 0.5925703
-0.11609756 0.21667406 0.59191334
-0.11596899 0.21767442 0.59125781
-0.11571271 0.21843094 0.58995122
-0.11558499 0.21942605 0.58930004
-0.11520352 0.21993399 0.58735514
-0.1146988 0.22019716 0.58478183
-0.11444809 0.22093989 0.58350366
-0.11407407 0.2214379 0.58159673
-0.11394995 0.22241567 0.58096391
-0.11382609 0.22339131 0.5803324
-0.11308856 0.22315335 0.57657218
-0.11081482 0.22222222 0.56497973
-0.11 0.2217647 0.56082547
-0.10976939 0.2224738 0.55964971
-0.10953975 0.22317992 0.55847889
-0.10931107 0.22388309 0.55731297
-0.10908333 0.22458333 0.55615193
-0.10885655 0.22528067 0.55499566
-0.1086307 0.22597511 0.55384421
-0.10885655 0.22760914 0.55499566
-0.10908333 0.22925 0.55615193
-0.10908333 0.23041667 0.55615193
-0.10908333 0.23158333 0.55615193
-0.31353295 0.70251495 1.5985204
-0.31259701 0.70376122 1.5937487
-0.31259701 0.7071045 1.5937487
-0.31353295 0.71257484 1.5985204
-0.31259701 0.71379107 1.5937487
-0.31166667 0.71499997 1.5890055
-0.31074184 0.71620178 1.5842903
-0.3098225 0.71739644 1.5796031
-0.30890855 0.71858406 1.5749434
-0.308 0.71976471 1.5703113
-0.308 0.72305882 1.5703113
-0.30709678 0.7242229 1.5657063
-0.30619884 0.72538012 1.5611281
-0.30441859 0.72441858 1.5520518
-0.30441859 0.72767442 1.5520518
-0.30353624 0.72881162 1.5475532
-0.30265895 0.7299422 1.5430804
-0.30178675 0.73106629 1.5386335
-0.30091953 0.73218393 1.5342121
-0.2992 0.73119998 1.5254452
-0.29834759 0.73230767 1.5210992
-0.29834759 0.73549855 1.5210992
-0.29665723 0.73450422 1.5124811
-0.29581922 0.7355932 1.5082085
-0.29498592 0.73667604 1.5039601
-0.2941573 0.7377528 1.4997355
-0.2941573 0.74089885 1.4997355
-0.29333332 0.74196076 1.4955345
-0.29169917 0.74094707 1.4872029
-0.29088888 0.74199998 1.4830717
-0.29008311 0.74304712 1.4789635
-0.29008311 0.7461496 1.4789635
-0.28928176 0.74718231 1.474878
-0.28928176 0.75027627 1.474878
-0.28848484 0.75129479 1.4708149
-0.28769231 0.75230771 1.4667742
-0.28769231 0.75538462 1.4667742
-0.28769231 0.75846153 1.4667742
-0.2869041 0.75945204 1.4627557
-0.2869041 0.76252055 1.4627557
-0.28612021 0.76349729 1.4587591
-0.28534061 0.76446867 1.4547843
-0.28456521 0.7654348 1.4508311
-0.28456521 0.76847827 1.4508311
-0.28302702 0.76735133 1.4429888
-0.28226414 0.7683019 1.4390993
-0.28150538 0.76924729 1.4352307
-0.28075066 0.77018768 1.4313829
-0.28 0.77112299 1.4275557
-0.27925333 0.77205336 1.4237489
-0.27851063 0.77297872 1.4199623
-0.27851063 0.77595747 1.4199623
-0.27777189 0.77687001 1.4161959
-0.27703702 0.77777779 1.4124492
-0.27703702 0.78074074 1.4124492
-0.27630606 0.78163588 1.4087225
-0.27557895 0.78252631 1.4050153
-0.27557895 0.7854737 1.4050153
-0.27485564 0.78635168 1.4013276
-0.27485564 0.78929132 1.4013276
-0.27485564 0.79223096 1.4013276
-0.27485564 0.79517061 1.4013276
-0.27485564 0.79811025 1.4013276
-0.27413613 0.79895288 1.3976592
-0.27413613 0.80188483 1.3976592
-0.27342036 0.80271542 1.3940099
-0.27270833 0.80354166 1.3903798
-0.27129534 0.80227977 1.3831757
-0.27059433 0.80310076 1.3796016
-0.26989689 0.80391753 1.3760459
-1.1021277 -0.24425532 5.6798491
-1.0905263 -0.22989474 5.6200614
-1.0791667 -0.21583334 5.5615191
-1.0791667 -0.20416667 5.5615191
-1.0680412 -0.19051546 5.5041838
-1.0571429 -0.17714286 5.4480186
-1.0464647 -0.1640404 5.3929882
-1.036 -0.1512 5.3390584
-1.036 -0.14 5.3390584
-1.0257425 -0.12752475 5.2861962
-1.0257425 -0.11643565 5.2861962
-1.0156863 -0.10431372 5.2343707
-1.0058253 -0.092427187 5.1835518
-0.99615383 -0.080769233 5.1337099
-0.99615383 -0.07 5.1337099
-0.98666668 -0.058666665 5.0848174
-0.98666668 -0.048 5.0848174
-0.97735852 -0.036981132 5.0368476
-0.96822429 -0.026168223 4.9897742
-0.96822429 -0.015700934 4.9897742
-0.95925927 -0.005185185 4.9435725
-0.95925927 0.005185185 4.9435725
-0.95045871 0.015412844 4.8982186
-0.95045871 0.025688073 4.8982186
-0.95045871 0.035963304 4.8982186
-0.94181818 0.045818184 4.8536892
-0.94181818 0.056000002 4.8536892
-0.94181818 0.066181816 4.8536892
-0.94181818 0.076363638 4.8536892
-0.95925927 0.088148147 4.9435725
-0.96822429 0.099439256 4.9897742
-0.96822429 0.10990654 4.9897742
-0.69530201 0.41718119 3.5832605
-0.68609273 0.41907284 3.5358002
-0.68609273 0.42649007 3.5358002
-0.68157893 0.43105263 3.5125384
-0.68157893 0.43842104 3.5125384
-0.67272729 0.44 3.4669209
-0.68157893 0.46052632 3.5125384
-0.68157893 0.46789473 3.5125384
-0.68157893 0.47526315 3.5125384
-0.6771242 0.47947714 3.4895806
-0.14408901 0.11293463 0.74256724
-0.14329185 0.11385892 0.73845893
-0.14309393 0.11524862 0.73743898
-0.14289655 0.11663448 0.73642182
-0.14269972 0.11801653 0.73540747
-0.14250344 0.11939477 0.73439592
-0.1423077 0.12076923 0.73338711
-0.14211248 0.12213992 0.73238111
-0.14191781 0.12350685 0.73137784
-0.14172366 0.12487004 0.73037732
-0.14153005 0.12622951 0.72937953
-0.14133698 0.12758526 0.72838449
-0.14114441 0.12893733 0.72739214
-0.14095238 0.13028571 0.72640246
-0.14095238 0.13180952 0.72640246
-0.14056988 0.13297151 0.72443122
-0.1403794 0.13430895 0.72344965
-0.14 0.13545945 0.72149438
-0.13981107 0.13678813 0.72052068
-0.13962264 0.1381132 0.71954966
-0.13943473 0.13943473 0.7185812
-0.13924731 0.14075269 0.71761537
-0.13906041 0.14206712 0.7166521
-0.13906041 0.14357047 0.7166521
-0.13887399 0.14487936 0.71569145
-0.13868809 0.14618474 0.71473336
-0.13831776 0.14728972 0.71282488
-0.13813333 0.14858666 0.71187443
-0.13794941 0.14988016 0.71092653
-0.137583 0.15096946 0.70903826
-0.13721855 0.15205298 0.70716006
-0.13703704 0.15333334 0.70622462
-0.136856 0.15461031 0.70529169
-0.13667546 0.15588391 0.70436126
-0.13667546 0.15736148 0.70436126
-0.13667546 0.15883905 0.70436126
-0.13649538 0.16010541 0.70343322
-0.13631579 0.16136841 0.70250767
-0.135958 0.1624147 0.70066381
-0.12422062 0.19002397 0.64017487
-0.12407186 0.19113773 0.63940817
-0.12392344 0.19224881 0.63864332
-0.12333333 0.19266666 0.63560218
-0.12304038 0.19353919 0.63409245
-0.12289442 0.19463819 0.63334024
-0.12260355 0.19550295 0.63184124
-0.12216982 0.19613208 0.62960595
-0.12202591 0.19722027 0.62886435
-0.12202591 0.19853945 0.62886435
-0.12188235 0.19962353 0.62812448
-0.12131148 0.2 0.62518245
-0.12088682 0.20060676 0.62299395
-0.12060536 0.20144354 0.62154347
-0.1203252 0.20227642 0.62009966
-0.11990741 0.20287037 0.61794657
-0.11963049 0.20369515 0.61651945
-0.11935484 0.20451613 0.61509889
-0.11908046 0.20533334 0.61368483
-0.11880734 0.20614679 0.61227733
-0.11867125 0.20719358 0.61157596
-0.1184 0.208 0.61017811
-0.11799544 0.20856492 0.6080932
-0.1173273 0.20865232 0.60464984
-0.11693002 0.20920993 0.60260254
-0.11666667 0.20999999 0.60124528
-0.11653543 0.21102363 0.60056901
-0.11627385 0.21180695 0.59922093
-0.11614349 0.21282512 0.59854913
-0.11588367 0.21360178 0.59721011
-0.1154961 0.214136 0.59521276
-0.11511111 0.21466666 0.5932287
-0.11498335 0.21567148 0.5925703
-0.11472868 0.21643411 0.59125781
-0.11460177 0.21743363 0.59060377
-0.11447514 0.21843094 0.58995122
-0.11422271 0.21918413 0.58865029
-0.11372118 0.21945116 0.58606565
-0.11322404 0.21971585 0.58350366
-0.1129771 0.22045802 0.58223099
-0.11273123 0.22119695 0.58096391
-0.11260869 0.22217391 0.5803324
-0.11236443 0.22290672 0.57907355
-0.11175836 0.22291262 0.57595021
-0.10916755 0.22246575 0.56259835
-0.10870934 0.22270724 0.56023699
-0.10848168 0.22341362 0.55906367
-0.10825496 0.22411703 0.5578953
-0.10814196 0.22505219 0.55731297
-0.10780437 0.22551508 0.55557317
-0.10769231 0.2264449 0.55499566
-0.10802919 0.22832116 0.55673182
-0.10802919 0.22948906 0.55673182
-0.31017965 0.69916165 1.5985204
-0.31017965 0.70251495 1.5985204
-0.30925372 0.70376122 1.5937487
-0.30925372 0.7071045 1.5937487
-0.30925372 0.71044779 1.5937487
-0.30925372 0.71379107 1.5937487
-0.30833334 0.71499997 1.5890055
-0.30741841 0.71620178 1.5842903
-0.30650887 0.71739644 1.5796031
-0.30560473 0.71858406 1.5749434
-0.30470589 0.71976471 1.5703113
-0.30381233 0.72093844 1.5657063
-0.30292398 0.72210526 1.5611281
-0.30204082 0.72326529 1.5565767
-0.30028987 0.72231883 1.5475532
-0.29942197 0.72346818 1.5430804
-0.29942197 0.72670519 1.5430804
-0.29770115 0.72574711 1.5342121
-0.29770115 0.72896552 1.5342121
-0.296 0.72799999 1.5254452
-0.29515669 0.7291168 1.5210992
-0.29431817 0.73022729 1.5167779
-0.29348442 0.73133147 1.5124811
-0.29265538 0.73242939 1.5082085
-0.29183099 0.7335211 1.5039601
-0.29101124 0.73460674 1.4997355
-0.29101124 0.7377528 1.4997355
-0.29101124 0.74089885 1.4997355
-0.29019609 0.74196076 1.4955345
-0.28857937 0.74094707 1.4872029
-0.2869806 0.74304712 1.4789635
-0.2869806 0.7461496 1.4789635
-0.28618786 0.74718231 1.474878
-0.28539944 0.74820936 1.4708149
-0.28539944 0.75129479 1.4708149
-0.2846154 0.75230771 1.4667742
-0.2846154 0.75538462 1.4667742
-0.28383562 0.75638354 1.4627557
-0.28383562 0.75945204 1.4627557
-0.2830601 0.76043713 1.4587591
-0.2830601 0.76349729 1.4587591
-0.28228882 0.76446867 1.4547843
-0.28152174 0.7654348 1.4508311
-0.28152174 0.76847827 1.4508311
-0.2807588 0.76943088 1.4468993
-0.28 0.77037835 1.4429888
-0.27849463 0.76924729 1.4352307
-0.27849463 0.77225804 1.4352307
-0.27774799 0.77319032 1.4313829
-0.27700534 0.77411765 1.4275557
-0.27626666 0.77503997 1.4237489
-0.27553192 0.77595747 1.4199623
-0.27480108 0.77687001 1.4161959
-0.27480108 0.77984083 1.4161959
-0.27407408 0.78074074 1.4124492
-0.27335092 0.78163588 1.4087225
-0.27263159 0.78252631 1.4050153
-0.271916 0.7834121 1.4013276
-0.271916 0.78635168 1.4013276
-0.2712042 0.78722513 1.3976592
-0.271916 0.79223096 1.4013276
-0.2712042 0.79308903 1.3976592
-0.2712042 0.79602093 1.3976592
-0.26979166 0.79479164 1.3903798
-0.26979166 0.79770833 1.3903798
-0.26839378 0.79647666 1.3831757
-0.26770025 0.79731268 1.3796016
-0.2670103 0.79814434 1.3760459
-1.0902128 -0.24425532 5.6798491
-1.0787369 -0.22989474 5.6200614
-1.0787369 -0.21810526 5.6200614
-1.0675 -0.20416667 5.5615191
-1.0564948 -0.19051546 5.5041838
-1.0457143 -0.17714286 5.4480186
-1.0457143 -0.16571428 5.4480186
-1.0351515 -0.15272728 5.3929882
-1.0247999 -0.14 5.3390584
-1.0146534 -0.12752475 5.2861962
-1.0146534 -0.11643565 5.2861962
-1.0047059 -0.10431372 5.2343707
-0.99495143 -0.092427187 5.1835518
-0.99495143 -0.0815534 5.1835518
-0.98538464 -0.07 5.1337099
-0.98538464 -0.059230771 5.1337099
-0.97600001 -0.048 5.0848174
-0.96679246 -0.036981132 5.0368476
-0.96679246 -0.026415095 5.0368476
-0.957757 -0.015700934 4.9897742
-0.957757 -0.005233645 4.9897742
-0.9488889 0.005185185 4.9435725
-0.94018346 0.015412844 4.8982186
-0.94018346 0.025688073 4.8982186
-0.93163639 0.035636365 4.8536892
-0.93163639 0.045818184 4.8536892
-0.93163639 0.056000002 4.8536892
-0.93163639 0.066181816 4.8536892
-0.92324322 0.075675674 4.8099623
-0.94018346 0.087339446 4.8982186
-0.9488889 0.098518521 4.9435725
-0.94018346 0.10788991 4.8982186
-0.6924324 0.41243243 3.6074717
-0.6924324 0.41999999 3.6074717
-0.68778521 0.424698 3.5832605
-0.68778521 0.43221477 3.5832605
-0.68778521 0.43973154 3.5832605
-0.6832 0.44426668 3.5593722
-0.67867547 0.46357617 3.5358002
-0.67421055 0.46789473 3.5125384
-0.14135173 0.11354483 0.73642182
-0.14135173 0.11508965 0.73642182
-0.14115703 0.11647383 0.73540747
-0.14096285 0.11785419 0.73439592
-0.14076923 0.11923077 0.73338711
-0.14076923 0.12076923 0.73338711
-0.14057614 0.12213992 0.73238111
-0.14038356 0.12350685 0.73137784
-0.14019153 0.12487004 0.73037732
-0.14 0.12622951 0.72937953
-0.139809 0.12758526 0.72838449
-0.13961853 0.12893733 0.72739214
-0.13942857 0.13028571 0.72640246
-0.13942857 0.13180952 0.72640246
-0.1390502 0.13297151 0.72443122
-0.13886179 0.13430895 0.72344965
-0.13848649 0.13545945 0.72149438
-0.13848649 0.13697298 0.72149438
-0.1382996 0.1382996 0.72052068
-0.1381132 0.13962264 0.71954966
-0.13792732 0.14094213 0.7185812
-0.13774194 0.14225806 0.71761537
-0.13774194 0.14376344 0.71761537
-0.13755704 0.14507383 0.7166521
-0.13737266 0.14638069 0.71569145
-0.13718876 0.14768407 0.71473336
-0.13700534 0.14898396 0.71377784
-0.13682243 0.15028037 0.71282488
-0.13645805 0.15137151 0.71092653
-0.13609561 0.15245683 0.70903826
-0.13591512 0.15374005 0.70809793
-0.13555555 0.15481481 0.70622462
-0.13537648 0.15608983 0.70529169
-0.13519789 0.15736148 0.70436126
-0.13501976 0.15862978 0.70343322
-0.13501976 0.16010541 0.70343322
-0.13484211 0.16136841 0.70250767
-0.13466491 0.16262811 0.70158452
-0.13413613 0.1634555 0.69882959
-0.12273054 0.18845509 0.63940817
-0.12258373 0.18956938 0.63864332
-0.12258373 0.19090909 0.63864332
-0.12243728 0.19201912 0.63788033
-0.12214541 0.19289631 0.63635975
-0.12185493 0.19376932 0.63484639
-0.12171021 0.19486935 0.63409245
-0.1214218 0.19573459 0.63258982
-0.12127811 0.1968284 0.63184124
-0.12127811 0.19815385 0.63184124
-0.1214218 0.19971564 0.63258982
-0.12156583 0.20128115 0.63334024
-0.12113475 0.20189126 0.63109434
-0.12070671 0.20249705 0.62886435
-0.11985965 0.20238596 0.62445128
-0.11930151 0.20274737 0.62154347
-0.11902439 0.20357724 0.62009966
-0.11861111 0.20416667 0.61794657
-0.11806452 0.20451613 0.61509889
-0.11779311 0.20533334 0.61368483
-0.11752293 0.20614679 0.61227733
-0.11738832 0.20719358 0.61157596
-0.117254 0.20823799 0.61087626
-0.11685291 0.20880273 0.60878658
-0.11619048 0.20888889 0.60533541
-0.11579661 0.20944633 0.60328341
-0.11553551 0.21023676 0.60192317
-0.11527559 0.21102363 0.60056901
-0.11514607 0.21204494 0.59989417
-0.11488789 0.21282512 0.59854913
-0.11463087 0.21360178 0.59721011
-0.11424749 0.214136 0.59521276
-0.11399332 0.21490546 0.59388858
-0.11374029 0.21567148 0.5925703
-0.11348837 0.21643411 0.59125781
-0.11336283 0.21743363 0.59060377
-0.11323757 0.21843094 0.58995122
-0.11298787 0.21918413 0.58865029
-0.11261538 0.2196923 0.58670968
-0.11224534 0.22019716 0.58478183
-0.11187773 0.22069868 0.58286661
-0.11163399 0.2214379 0.58159673
-0.11139131 0.22217391 0.5803324
-0.11114968 0.22290672 0.57907355
-0.11043104 0.22267242 0.57532954
-0.10787369 0.22341053 0.56200612
-0.1075341 0.22388248 0.56023699
-0.1073089 0.22458638 0.55906367
-0.10719665 0.22552301 0.55847889
-0.10697286 0.22622129 0.55731297
-0.30774775 0.69789791 1.6033208
-0.30682635 0.69916165 1.5985204
-0.30591044 0.70041794 1.5937487
-0.30500001 0.70166665 1.5890055
-0.30591044 0.7071045 1.5937487
-0.30591044 0.71044779 1.5937487
-0.30591044 0.71379107 1.5937487
-0.30500001 0.71499997 1.5890055
-0.30409497 0.71620178 1.5842903
-0.30319527 0.71739644 1.5796031
-0.30230087 0.71858406 1.5749434
-0.30141178 0.71976471 1.5703113
-0.30052787 0.72093844 1.5657063
-0.29964912 0.72210526 1.5611281
-0.29877552 0.72326529 1.5565767
-0.29790697 0.72441858 1.5520518
-0.29704347 0.7255652 1.5475532
-0.29618496 0.72670519 1.5430804
-0.29533142 0.72783864 1.5386335
-0.29448277 0.72896552 1.5342121
-0.29363897 0.73008597 1.5298162
-0.29280001 0.73119998 1.5254452
-0.29196581 0.73230767 1.5210992
-0.29113635 0.73340911 1.5167779
-0.28949153 0.73242939 1.5082085
-0.28867605 0.7335211 1.5039601
-0.28786516 0.73460674 1.4997355
-0.28786516 0.7377528 1.4997355
-0.28786516 0.74089885 1.4997355
-0.28705883 0.74196076 1.4955345
-0.28545961 0.74094707 1.4872029
-0.28309393 0.75027627 1.474878
-0.28231406 0.75129479 1.4708149
-0.28153846 0.75230771 1.4667742
-0.28153846 0.75538462 1.4667742
-0.28153846 0.75846153 1.4667742
-0.28076711 0.75945204 1.4627557
-0.28 0.76043713 1.4587591
-0.28 0.76349729 1.4587591
-0.27923706 0.76446867 1.4547843
-0.27923706 0.76752043 1.4547843
-0.27923706 0.77057219 1.4547843
-0.27847826 0.77152175 1.4508311
-0.27772358 0.77246612 1.4468993
-0.2762264 0.77132076 1.4390993
-0.27548388 0.77225804 1.4352307
-0.27548388 0.77526879 1.4352307
-0.27401069 0.77411765 1.4275557
-0.27401069 0.77711231 1.4275557
-0.27327999 0.77802664 1.4237489
-0.27255321 0.77893615 1.4199623
-0.27183023 0.77984083 1.4161959
-0.2711111 0.78074074 1.4124492
-0.27039579 0.78163588 1.4087225
-0.27039579 0.78459102 1.4087225
-0.26968423 0.7854737 1.4050153
-0.26897639 0.78635168 1.4013276
-0.26897639 0.78929132 1.4013276
-1.0782979 -0.24425532 5.6798491
-1.0782979 -0.23234043 5.6798491
-1.0669473 -0.21810526 5.6200614
-1.0558333 -0.20416667 5.5615191
-1.0449485 -0.19051546 5.5041838
-1.0342857 -0.17714286 5.4480186
-1.0342857 -0.16571428 5.4480186
-1.0238384 -0.15272728 5.3929882
-1.0136 -0.14 5.3390584
-1.0035644 -0.12752475 5.2861962
-1.0035644 -0.11643565 5.2861962
-0.99372548 -0.10431372 5.2343707
-0.99372548 -0.093333334 5.2343707
-0.98407769 -0.0815534 5.1835518
-0.9746154 -0.07 5.1337099
-0.96533334 -0.058666665 5.0848174
-0.96533334 -0.048 5.0848174
-0.95622641 -0.036981132 5.0368476
-0.95622641 -0.026415095 5.0368476
-0.94728971 -0.015700934 4.9897742
-0.94728971 -0.005233645 4.9897742
-0.93851852 0.005185185 4.9435725
-0.92990828 0.015412844 4.8982186
-0.92990828 0.025688073 4.8982186
-0.92145455 0.035636365 4.8536892
-0.91315317 0.045405407 4.8099623
-0.91315317 0.055495497 4.8099623
-0.91315317 0.065585583 4.8099623
-0.91315317 0.075675674 4.8099623
-0.92145455 0.086545452 4.8536892
-0.92990828 0.097614676 4.8982186
-0.92990828 0.10788991 4.8982186
-0.68486488 0.41243243 3.6074717
-0.68486488 0.41999999 3.6074717
-0.68026847 0.424698 3.5832605
-0.68486488 0.43513513 3.6074717
-0.68026847 0.43973154 3.5832605
-0.67573333 0.44426668 3.5593722
-0.6668421 0.46052632 3.5125384
-0.1398069 0.11508965 0.73642182
-0.1398069 0.11663448 0.73642182
-0.13942228 0.11785419 0.73439592
-0.13923077 0.11923077 0.73338711
-0.13923077 0.12076923 0.73338711
-0.13903978 0.12213992 0.73238111
-0.13903978 0.12367627 0.73238111
-0.13884932 0.1250411 0.73137784
-0.13865937 0.12640218 0.73037732
-0.13828103 0.12758526 0.72838449
-0.13809264 0.12893733 0.72739214
-0.13809264 0.13046321 0.72739214
-0.13790476 0.13180952 0.72640246
-0.13753054 0.13297151 0.72443122
-0.13734417 0.13430895 0.72344965
-0.13697298 0.13545945 0.72149438
-0.13697298 0.13697298 0.72149438
-0.13678813 0.1382996 0.72052068
-0.13660377 0.13962264 0.71954966
-0.13641992 0.14094213 0.7185812
-0.13623656 0.14225806 0.71761537
-0.13623656 0.14376344 0.71761537
-0.1360537 0.14507383 0.7166521
-0.1360537 0.14657718 0.7166521
-0.13568942 0.14768407 0.71473336
-0.13568942 0.14918341 0.71473336
-0.13550802 0.15048128 0.71377784
-0.13514666 0.15157333 0.71187443
-0.13496672 0.15286285 0.71092653
-0.13460824 0.15394422 0.70903826
-0.13425165 0.15501986 0.70716006
-0.13389696 0.15608983 0.70529169
-0.13372032 0.15736148 0.70436126
-0.13354413 0.15862978 0.70343322
-0.13336842 0.15989473 0.70250767
-0.13319317 0.16115637 0.70158452
-0.13301837 0.1624147 0.70066381
-0.13284403 0.16366972 0.69974554
-0.13249673 0.16470589 0.69791609
-0.13197917 0.16552083 0.69518989
-0.13146563 0.16632944 0.69248486
-0.13112548 0.167348 0.6906932
-0.13112548 0.1687969 0.6906932
-0.13095607 0.17002584 0.6898008
-0.12212048 0.18824096 0.64326006
-0.12168067 0.18890756 0.64094335
-0.12153477 0.19002397 0.64017487
-0.12138923 0.19113773 0.63940817
-0.12138923 0.19247904 0.63940817
-0.12095466 0.19312648 0.63711911
-0.12081049 0.19423123 0.63635975
-0.12066667 0.19533333 0.63560218
-0.12052318 0.19643281 0.63484639
-0.12052318 0.19776456 0.63484639
-0.12066667 0.19933334 0.63560218
-0.12081049 0.20090584 0.63635975
-0.12095466 0.2024821 0.63711911
-0.12081049 0.20357569 0.63635975
-0.12052318 0.20442331 0.63484639
-0.12038004 0.20551069 0.63409245
-0.11882766 0.20417351 0.62591541
-0.11827304 0.20452742 0.62299395
-0.11786047 0.20511627 0.6208207
-0.11731482 0.20546296 0.61794657
-0.11663982 0.20556962 0.61439103
-0.11623853 0.20614679 0.61227733
-0.11610539 0.20719358 0.61157596
-0.11584 0.208 0.61017811
-0.11557583 0.20880273 0.60878658
-0.11505108 0.209126 0.60602248
-0.11453107 0.20944633 0.60328341
-0.11414415 0.20999999 0.60124528
-0.11401575 0.21102363 0.60056901
-0.11375982 0.21180695 0.59922093
-0.11363228 0.21282512 0.59854913
-0.11337808 0.21360178 0.59721011
-0.11299889 0.214136 0.59521276
-0.1127475 0.21490546 0.59388858
-0.11249723 0.21567148 0.5925703
-0.11224806 0.21643411 0.59125781
-0.11212389 0.21743363 0.59060377
-0.112 0.21843094 0.58995122
-0.11175303 0.21918413 0.58865029
-0.11138462 0.2196923 0.58670968
-0.11114035 0.2204386 0.58542305
-0.11077596 0.22093989 0.58350366
-0.11041395 0.2214379 0.58159673
-0.1102938 0.22241567 0.58096391
-0.11017391 0.22339131 0.5803324
-0.10957838 0.22339459 0.57719547
-0.10922414 0.22387931 0.57532954
-0.10691983 0.22388186 0.56319177
-0.10635886 0.22388248 0.56023699
-0.10613613 0.22458638 0.55906367
-0.30347306 0.69580841 1.5985204
-0.30256715 0.69707465 1.5937487
-0.30166668 0.69833332 1.5890055
-0.30166668 0.70166665 1.5890055
-0.30166668 0.70499998 1.5890055
-0.30256715 0.71044779 1.5937487
-0.30166668 0.71166664 1.5890055
-0.30166668 0.71499997 1.5890055
-0.3007715 0.71620178 1.5842903
-0.29988167 0.71739644 1.5796031
-0.29988167 0.72071004 1.5796031
-0.29899704 0.72188789 1.5749434
-0.29811764 0.72305882 1.5703113
-0.29724342 0.7242229 1.5657063
-0.29637426 0.72538012 1.5611281
-0.2955102 0.72653061 1.5565767
-0.29465115 0.72767442 1.5520518
-0.29379711 0.72881162 1.5475532
-0.29294798 0.7299422 1.5430804
-0.29210374 0.73106629 1.5386335
-0.29126436 0.73218393 1.5342121
-0.2904298 0.73329514 1.5298162
-0.2904298 0.73650432 1.5298162
-0.28960001 0.73760003 1.5254452
-0.28795454 0.73659092 1.5167779
-0.28713882 0.73767704 1.5124811
-0.28552112 0.73667604 1.5039601
-0.28552112 0.73983097 1.5039601
-0.28552112 0.7429859 1.5039601
-0.28392157 0.74196076 1.4955345
-0.2831285 0.74301678 1.4913571
-0.28 0.75027627 1.474878
-0.27922866 0.75129479 1.4708149
-0.27846155 0.75230771 1.4667742
-0.27846155 0.75538462 1.4667742
-0.27846155 0.75846153 1.4667742
-0.27769864 0.75945204 1.4627557
-0.27769864 0.76252055 1.4627557
-0.27769864 0.76558906 1.4627557
-0.2769399 0.7665574 1.4587591
-0.2769399 0.7696175 1.4587591
-0.27618527 0.77057219 1.4547843
-0.27543479 0.77152175 1.4508311
-0.27468833 0.77246612 1.4468993
-0.27394596 0.77340543 1.4429888
-0.27247313 0.77225804 1.4352307
-0.27247313 0.77526879 1.4352307
-0.27101603 0.77411765 1.4275557
-0.27029333 0.77503997 1.4237489
-0.26957446 0.77595747 1.4199623
-0.26957446 0.77893615 1.4199623
-0.26814815 0.77777779 1.4124492
-0.26603675 0.7834121 1.4013276
-1.066383 -0.24425532 5.6798491
-1.0551579 -0.22989474 5.6200614
-1.0551579 -0.21810526 5.6200614
-1.0441667 -0.20416667 5.5615191
-1.0334021 -0.19051546 5.5041838
-1.0228572 -0.17714286 5.4480186
-1.0125252 -0.1640404 5.3929882
-1.0024 -0.1512 5.3390584
-1.0024 -0.14 5.3390584
-0.99247527 -0.12752475 5.2861962
-0.99247527 -0.11643565 5.2861962
-0.98274511 -0.10431372 5.2343707
-0.98274511 -0.093333334 5.2343707
-0.9732039 -0.0815534 5.1835518
-0.96384615 -0.07 5.1337099
-0.95466667 -0.058666665 5.0848174
-0.95466667 -0.048 5.0848174
-0.94566035 -0.036981132 5.0368476
-0.94566035 -0.026415095 5.0368476
-0.93682241 -0.015700934 4.9897742
-0.93682241 -0.005233645 4.9897742
-0.92814815 0.005185185 4.9435725
-0.91963303 0.015412844 4.8982186
-0.91963303 0.025688073 4.8982186
-0.9112727 0.035636365 4.8536892
-0.90306306 0.045405407 4.8099623
-0.90306306 0.055495497 4.8099623
-0.89499998 0.064999998 4.7670164
