# .PCD v0.7 - Point Cloud Data file format
VERSION 0.7
FIELDS x y z
SIZE 4 4 4
TYPE F F F
COUNT 1 1 1
WIDTH 1043
HEIGHT 1
VIEWPOINT 0 0 0 1 0 0 0
POINTS 1043
DATA ascii
0.045149907 0.13880709 0.58967221
0.050740331 0.13922653 0.58995122
-0.0018563536 0.14912707 0.58995122
0.005662953 0.14658275 0.58861029
0.014979259 0.14650054 0.58790398
0.02463625 0.1463993 0.58749771
0.034960434 0.14521609 0.58682477
0.045245737 0.14465432 0.58670568
0.055273656 0.1446801 0.58694094
0.064985938 0.14552636 0.58731574
0.074528858 0.1476716 0.58836603
0.082268521 0.14865969 0.5897342
-0.022487333 0.15770452 0.58894426
-0.014578507 0.15641542 0.58755624
-0.0048119444 0.15482503 0.58730215
0.0048835701 0.15496677 0.58539611
0.014816391 0.15496062 0.58448994
0.024935074 0.15517133 0.58422488
0.035297282 0.15467113 0.58394104
0.045257378 0.1550056 0.5838632
0.055153802 0.15493774 0.58361191
0.064894177 0.15498556 0.58485693
0.075141922 0.15498194 0.58668071
0.084915124 0.15477167 0.5873763
0.094734825 0.15601364 0.58835757
0.10148066 0.15902762 0.58995122
-0.041596513 0.16947213 0.58897591
-0.033959214 0.16635472 0.5890969
-0.024816308 0.16494589 0.58822817
-0.014690551 0.16482775 0.58606702
-0.0049700942 0.16483514 0.58497721
0.004759362 0.16486333 0.584589
0.014594049 0.16483553 0.58480561
0.024789795 0.16499104 0.58468533
0.03507619 0.16533892 0.58413345
0.045269951 0.16535024 0.58411205
0.055115115 0.16534583 0.58385289
0.065154664 0.16511501 0.58440787
0.074853621 0.16465633 0.58546323
0.084808789 0.16499856 0.58486235
0.094696753 0.164874 0.58511084
0.10428347 0.16568092 0.58891308
0.11076243 0.16892818 0.58995122
-0.051340681 0.17876272 0.5897342
-0.044054803 0.17577794 0.58848244
-0.034677304 0.17493732 0.58752203
-0.024647001 0.1749894 0.58744615
-0.014846313 0.17491336 0.5869565
-0.0048430683 0.17484352 0.58572841
0.0050286003 0.17471631 0.58581382
0.014620705 0.17465509 0.58728141
0.024516657 0.1741966 0.58714408
0.03493271 0.1739831 0.58573753
0.045262106 0.17495884 0.58577603
0.055159271 0.17539147 0.58635795
0.065143779 0.17481183 0.58604652
0.075050309 0.17461908 0.58596498
0.084920801 0.17473724 0.58542424
0.094630033 0.17526428 0.58445239
0.10430618 0.17548183 0.5860821
0.11454286 0.17685704 0.58795297
0.1205298 0.17863135 0.58930004
-0.060022101 0.18687293 0.58995122
-0.05437123 0.18529944 0.58906102
-0.044425745 0.18510136 0.58825505
-0.034515861 0.18490553 0.58762819
-0.024664398 0.18498899 0.58789116
-0.015103438 0.18464494 0.58834368
-0.0057284711 0.1825061 0.5881198
0.0030896047 0.18138348 0.58886844
0.015774053 0.18248935 0.58978844
0.045823175 0.1818019 0.58709162
0.053822927 0.18252942 0.58924657
0.064972378 0.18068509 0.58995122
0.076678343 0.18193148 0.58897603
0.085498378 0.18434104 0.58800375
0.094790936 0.18500911 0.58678842
0.10467517 0.18480913 0.58616424
0.11467081 0.18494873 0.58776999
0.12356755 0.18763308 0.58950067
-0.062550679 0.19713704 0.5898065
-0.054969117 0.1951661 0.58883727
-0.04470348 0.1952507 0.58866984
-0.035102449 0.19367103 0.58911461
-0.026253873 0.19237158 0.58973432
-0.018563535 0.19120441 0.58995122
0.097763933 0.19175129 0.58951765
0.10582027 0.193405 0.58823693
0.11473714 0.19493112 0.58811492
0.12406999 0.19524938 0.589513
-0.061259668 0.20151751 0.58995122
-0.05364386 0.20249613 0.58942574
-0.046571765 0.20337903 0.58950871
0.1161951 0.20145407 0.58988607
0.12231307 0.20110497 0.58995122
-0.023073496 0.1390646 0.59454989
-0.013892018 0.13801393 0.59565616
-0.0050716754 0.13774639 0.59611088
0.0053383652 0.13665278 0.59203207
0.014913393 0.13688463 0.5929361
0.024977155 0.13672808 0.59248811
0.03479464 0.13672812 0.59278244
0.04444791 0.13731298 0.59425366
0.054654852 0.13755403 0.59416485
0.065084092 0.13833937 0.59699416
0.075220957 0.13790834 0.59765011
0.083709657 0.13846296 0.59638733
0.090827741 0.13968681 0.59721011
-0.042590898 0.14940049 0.59434426
-0.034191739 0.14706837 0.59811991
-0.024894096 0.14483914 0.59493077
-0.014902712 0.1447991 0.59470338
-0.0051207142 0.14488935 0.59377748
0.0036705623 0.14261745 0.59118348
0.014436739 0.14180046 0.59110236
0.024831211 0.14181526 0.59116489
0.032630973 0.14085191 0.59071285
0.040265486 0.14061947 0.59060377
0.066537723 0.14076303 0.59201795
0.075267278 0.14281744 0.59304869
0.084926292 0.14462905 0.59337187
0.094289571 0.1460924 0.59467876
0.10270018 0.14828224 0.5949378
-0.051373549 0.15694697 0.59913731
-0.044626873 0.15533093 0.59445995
-0.034896202 0.15473169 0.59434932
-0.025538132 0.15385358 0.59328395
-0.015417653 0.15172078 0.59268385
-0.0076435483 0.15058655 0.59082186
0.089203537 0.15053098 0.59060377
0.096035339 0.15151317 0.59121466
0.10498544 0.15460391 0.59190422
0.11446142 0.15585987 0.59470284
0.12411597 0.15736067 0.59854978
0.13024719 0.15919101 0.59989417
-0.051189393 0.16400689 0.59955764
-0.045026794 0.16511007 0.59404242
-0.03627795 0.16213767 0.59097791
0.10790025 0.1621591 0.59095621
0.11516289 0.16483545 0.59356993
0.12340333 0.16425683 0.5992443
0.13096629 0.16332585 0.59989417
-0.054212987 0.17654978 0.59572148
-0.048118994 0.1724008 0.59248352
0.028495576 0.17902654 0.59060377
0.032220796 0.17907611 0.59076732
0.10964601 0.17159292 0.59060377
0.11502066 0.17285414 0.59167618
0.12510079 0.1758498 0.59714037
0.13161793 0.17763411 0.59897143
-0.063692279 0.18579623 0.59515524
-0.05823477 0.18108168 0.59154093
-0.011156274 0.18904267 0.59093082
-0.0042989017 0.18751973 0.59191507
0.0054010982 0.18644427 0.5931409
0.014926951 0.18516646 0.59161699
0.024655363 0.18335639 0.59207815
0.033302087 0.185019 0.59525549
0.041891705 0.18571299 0.59611481
0.056994144 0.18685377 0.59163862
0.064935923 0.18574437 0.59432197
0.074474797 0.18652852 0.59365672
0.081476204 0.18880391 0.5914768
0.12590845 0.18385465 0.5914669
0.13477157 0.18615255 0.59594584
0.14168942 0.18849853 0.59905422
-0.071893603 0.1971937 0.59705198
-0.065912589 0.19397934 0.59266293
-0.033208638 0.19819453 0.59102452
-0.024238685 0.19650626 0.59263664
-0.014656167 0.19502158 0.59613311
-0.0048251306 0.19511324 0.59499884
0.0049572801 0.19492963 0.59452814
0.0110686 0.19352961 0.59290057
0.033643797 0.19443713 0.5965296
0.042073995 0.19417056 0.59686679
0.05816244 0.1922919 0.59369224
0.065385677 0.19464917 0.59714752
0.07462135 0.19434977 0.59806389
0.084770776 0.1936219 0.59566319
0.094720908 0.19567755 0.59471613
0.10361037 0.19783969 0.59231776
0.12897345 0.19463716 0.59060377
0.13506301 0.19510598 0.59304464
0.14439216 0.19526421 0.59649789
0.15201853 0.19720468 0.59934002
-0.081122994 0.2087813 0.59955752
-0.074360296 0.20553122 0.59568608
-0.064973116 0.20543221 0.59178269
-0.055352975 0.206797 0.59081471
-0.04300731 0.20640239 0.59151304
-0.035071094 0.20466825 0.59392118
-0.026124183 0.20380343 0.59786201
-0.014464143 0.201701 0.59960568
-0.0050815283 0.20211734 0.59686589
0.0029117935 0.20119703 0.59510273
0.034814462 0.20381616 0.59771091
0.066155352 0.2009781 0.59841585
0.071316071 0.20138018 0.59905338
0.09740743 0.20138797 0.59916067
0.10599117 0.20407501 0.59697419
0.11490744 0.20595482 0.59180814
0.12550186 0.20507593 0.59088373
0.13529129 0.20479546 0.59167796
0.14526877 0.20507661 0.59363836
0.15318227 0.20515113 0.59759068
-0.082422696 0.21584651 0.59723788
-0.074985735 0.21499754 0.5948571
-0.06481842 0.21476354 0.59301418
-0.054694999 0.21443987 0.59258592
-0.045186266 0.21489532 0.5952521
-0.036074728 0.2126288 0.59841812
0.10954889 0.21197736 0.59910971
0.11539165 0.21431258 0.59520274
0.12526236 0.21475482 0.59172291
0.13519754 0.21457873 0.59126824
0.14481895 0.21505147 0.59257102
0.15388608 0.21504231 0.59603298
-0.08443331 0.22532302 0.59722674
-0.075035617 0.22487889 0.59518117
-0.06476368 0.22474509 0.59482789
-0.055234231 0.22500786 0.59666789
-0.04793229 0.22383754 0.59895319
0.11825747 0.22347663 0.59878701
0.12548518 0.22454311 0.59584641
0.13497679 0.22481632 0.59285724
0.14451213 0.22522588 0.59355319
0.1544928 0.22482146 0.59613866
0.16074865 0.22802363 0.5994454
-0.091235958 0.23469663 0.59989417
-0.085288912 0.23504676 0.59778661
-0.074994974 0.23498179 0.59582597
-0.065215752 0.23484579 0.59641975
-0.056414139 0.23429398 0.59869218
-0.049707863 0.23092134 0.59989417
0.12808371 0.23256426 0.59902984
0.13478751 0.23513031 0.59633529
0.14490402 0.23489985 0.59488147
0.15486769 0.2349581 0.59569925
0.16271436 0.23563011 0.5986762
-0.091235958 0.24602248 0.59989417
-0.085555986 0.24511006 0.59867108
-0.075251751 0.24519795 0.59787965
-0.06664928 0.24464932 0.59891897
0.13755429 0.24421442 0.59842259
0.14505383 0.24529256 0.59669751
0.15507042 0.2451138 0.59614789
0.16422585 0.24512027 0.59843636
-0.091235958 0.25294381 0.59989417
-0.085171282 0.25442651 0.59957731
-0.07559976 0.2547619 0.59926748
-0.068608098 0.25405553 0.59945875
0.13863671 0.25147566 0.59989417
0.14524341 0.2548047 0.59845459
0.15504083 0.25503397 0.59741402
0.163072 0.25402015 0.59916788
-0.091235958 0.26930338 0.59989417
-0.0887191 0.26867417 0.59989417
-0.079910114 0.2665768 0.59989417
0.14817977 0.26269665 0.59989411
0.15502858 0.2648313 0.59933895
0.1607939 0.26550898 0.59961361
-0.079910114 0.271191 0.59989417
-0.031496063 0.14362204 0.60056901
-0.054188654 0.15878466 0.60073805
-0.040944882 0.15055119 0.60056901
-0.039685041 0.15055119 0.60056901
0.12913387 0.15937008 0.60056901
-0.062740274 0.16777973 0.60483164
-0.055390395 0.16566896 0.60190833
0.12752709 0.1657269 0.60059589
0.13295403 0.16738933 0.60131377
-0.073016301 0.17788404 0.60421813
-0.06475839 0.17500876 0.60436213
-0.056648001 0.17340063 0.60159576
0.12735486 0.17127606 0.60066569
0.13523881 0.17452799 0.60179698
0.14343353 0.17697382 0.60700297
-0.08291664 0.18659391 0.60503018
-0.074803121 0.1848377 0.60362184
-0.066824533 0.1831699 0.60241765
0.038529076 0.18758769 0.60217869
0.041083522 0.18835214 0.60260254
0.13711375 0.18268462 0.60137314
0.14559472 0.18483168 0.6041804
0.15178841 0.18572213 0.60456002
-0.092396848 0.19717878 0.60715598
-0.085042208 0.19541794 0.6055966
-0.076028302 0.19431882 0.60227925
-0.069921263 0.19086614 0.60056901
-0.014706558 0.19895735 0.60090721
0.038532007 0.194745 0.60148013
0.041504234 0.19162785 0.60138184
0.077157758 0.19852118 0.60085887
0.084811985 0.19842015 0.60118926
0.090532504 0.19934005 0.60079443
0.14892744 0.19135773 0.60079443
0.15533188 0.19448471 0.60164964
0.16280863 0.19710061 0.60423261
-0.10097858 0.20832914 0.60740256
-0.094979279 0.20518056 0.6057688
-0.085088752 0.20478629 0.60427547
-0.078784518 0.20310515 0.60090733
-0.023470268 0.20745242 0.60117066
-0.015808191 0.20524856 0.60289687
0.037601002 0.20559821 0.60160482
0.076800577 0.20416479 0.60434419
0.084716074 0.20474772 0.6038717
0.094364263 0.20587747 0.60241222
0.10330397 0.20790952 0.60120636
0.15850158 0.20449011 0.60139966
0.16481216 0.20501456 0.604527
0.17174534 0.20746776 0.60817492
-0.10171583 0.21542938 0.60697669
-0.095142454 0.21507612 0.60529703
-0.086975157 0.21412338 0.60321856
-0.040944882 0.21984252 0.60056901
-0.034345251 0.21688159 0.60207576
-0.025774604 0.21407019 0.60344559
-0.01863973 0.21073088 0.60243309
0.036428861 0.21413954 0.60353535
0.078918204 0.21120901 0.60888612
0.085693866 0.21282236 0.60720366
0.095110342 0.21509224 0.60510194
0.10477812 0.21503103 0.60271454
0.11182286 0.21898246 0.6009751
0.15912999 0.21317649 0.60071927
0.16522843 0.21510778 0.60353905
0.17250377 0.2151608 0.60611945
-0.10234407 0.22560363 0.60605538
-0.094878115 0.22489765 0.60248262
-0.088709101 0.22240113 0.60124636
-0.043788508 0.2261776 0.6031574
-0.035235032 0.2236755 0.60765356
-0.028701976 0.22132169 0.60809362
0.035237879 0.22250091 0.60643721
0.0979001 0.22093339 0.60553241
0.10597525 0.2241637 0.60439891
0.11357886 0.22541131 0.60175478
0.12220472 0.22897638 0.60056901
0.16520296 0.22485195 0.60282785
0.17442465 0.22487263 0.60671377
-0.11017442 0.2375432 0.6071713
-0.10473078 0.23508292 0.60554814
-0.095804594 0.23494975 0.60232991
-0.052108757 0.23630026 0.60168314
-0.046390239 0.23410231 0.60505503
0.10932972 0.23296395 0.60602522
0.11563961 0.23431818 0.60371155
0.12405879 0.23524883 0.60182959
0.1675867 0.23440309 0.60328829
0.17338383 0.23406447 0.60898006
-0.1105964 0.24408004 0.60849035
-0.10467036 0.24497059 0.60607898
-0.095912419 0.24470954 0.60267437
-0.06217853 0.24676624 0.60185724
-0.055426344 0.24443224 0.60490566
-0.048704758 0.24182442 0.60832644
0.11819763 0.24213243 0.60781741
0.12562928 0.24415067 0.60562688
0.13282527 0.24581957 0.60172337
0.16881327 0.2443831 0.60166973
0.17204346 0.24532902 0.60590065
-0.11105429 0.25878546 0.60920352
-0.10463318 0.25533795 0.60672742
-0.095530026 0.25514194 0.6029734
-0.086299211 0.25864568 0.60056901
-0.071181104 0.25889763 0.60056901
-0.063844018 0.25546649 0.60353047
-0.058112238 0.25367847 0.60789794
0.128369 0.25250641 0.60834634
0.13503715 0.25501096 0.60340756
0.14075606 0.25744414 0.60070425
0.16701071 0.25589997 0.60104823
0.17334807 0.25559655 0.60536635
-0.11057217 0.26233509 0.60795581
-0.10486002 0.2652275 0.60440868
-0.095000803 0.26508287 0.60301214
-0.085152224 0.26492751 0.60119474
-0.075172782 0.26506561 0.60162437
-0.06487868 0.26471689 0.60468221
-0.059452053 0.26593608 0.60948151
0.13655303 0.26461092 0.60523272
0.144381 0.26545981 0.60121894
0.15097114 0.26855645 0.60056901
0.16577211 0.26510659 0.60189259
0.17472667 0.26521066 0.60621262
-0.10309925 0.27482525 0.60326356
-0.094740763 0.27506405 0.60235065
-0.084886953 0.27502334 0.60188764
-0.074729368 0.2748898 0.60356265
-0.064958684 0.27479613 0.60681432
0.13764457 0.27470776 0.60756522
0.1449362 0.27494019 0.60335129
0.15516213 0.27510497 0.60140061
0.16482365 0.2751942 0.60233831
0.17491798 0.27488157 0.60631627
-0.10211559 0.28590053 0.60721576
-0.095049113 0.28494149 0.60503113
-0.084693536 0.28481233 0.60296017
-0.074902713 0.2849575 0.60472882
-0.066289 0.28505251 0.60798436
0.13892919 0.28458393 0.60874647
0.14496122 0.2848019 0.60545021
0.1547702 0.28515279 0.60360301
0.16508958 0.28528818 0.60437596
0.17495492 0.28454942 0.60801387
-0.1003653 0.29150683 0.60948151
-0.094759613 0.29505253 0.60832489
-0.084887251 0.29504654 0.60458004
-0.075020224 0.2951344 0.60626596
-0.06751167 0.29454559 0.60889888
0.139201 0.29236865 0.60918373
0.14475279 0.29516956 0.60700017
0.15480697 0.29498622 0.60481608
0.16477166 0.2950885 0.60651827
0.17303155 0.2943638 0.60906005
-0.09271846 0.30378312 0.60917264
-0.085402057 0.30508384 0.60695457
-0.075098708 0.30489108 0.60750979
-0.068575598 0.30433241 0.60913408
0.14503087 0.30460766 0.60789859
0.15511709 0.30470139 0.60633641
0.16380432 0.30375087 0.60803968
0.17388128 0.3010959 0.60948151
-0.090586446 0.31213376 0.60906458
-0.085972048 0.31302893 0.60911918
-0.075325608 0.31324199 0.60923141
-0.067756049 0.31225353 0.60942352
0.14680865 0.31406721 0.6092211
0.15428145 0.31483719 0.60885525
0.16155247 0.31198478 0.60927314
0.14721762 0.32470202 0.6091727
0.15228513 0.32411456 0.60924202
-0.076073058 0.33305937 0.60948151
0.14721723 0.33129185 0.6093657
0.15086758 0.33050227 0.60948151
-0.091946661 0.19349334 0.61017811
0.076159999 0.20928 0.61017811
0.082163848 0.21576226 0.61041081
-0.035017144 0.22811431 0.61017811
0.091519997 0.2208 0.61017811
0.17984 0.22912 0.61017811
0.18111999 0.22848 0.61017811
-0.042146996 0.23685366 0.61157751
-0.038498107 0.23393691 0.61171836
0.17682594 0.23618789 0.6114372
0.18182282 0.23516549 0.61231571
-0.11161606 0.24862829 0.61041087
-0.050908923 0.24814205 0.61052716
-0.044865295 0.24456723 0.61373156
-0.03930955 0.24036823 0.61439103
0.11957155 0.24706265 0.61181301
0.12196828 0.24842684 0.61122692
0.17747025 0.24496765 0.61288142
0.18345678 0.24515013 0.61441076
-0.1122566 0.253865 0.61047196
-0.10943999 0.25343999 0.61017811
-0.05389037 0.25509253 0.61190122
-0.049497321 0.25234285 0.61688155
0.034877378 0.25512812 0.61581451
0.11890469 0.25270391 0.61723661
0.1245346 0.25496387 0.61290246
0.1309226 0.25864249 0.6108768
0.17826262 0.25335699 0.61198056
0.18468772 0.25542808 0.61529529
0.19012746 0.25631517 0.6186626
-0.055734005 0.2654973 0.61405712
-0.045512844 0.26956216 0.61809075
-0.038300358 0.26939732 0.61890185
-0.00064590544 0.26805076 0.61580837
0.0050936118 0.26828331 0.61445707
0.011604633 0.26815799 0.61457247
0.029200463 0.26929316 0.6186626
0.035140969 0.26632214 0.61479956
0.044840015 0.26792809 0.61668324
0.051998094 0.26904988 0.61711615
0.066655919 0.26986143 0.61699456
0.075983107 0.26845676 0.61674255
0.08384686 0.26889855 0.61775732
0.094891384 0.26806381 0.61714852
0.10449656 0.26914465 0.61662412
0.11893401 0.26817107 0.61794817
0.124918 0.2648614 0.61477935
0.13157827 0.26519406 0.61142451
0.17984 0.26304001 0.61017811
0.18532233 0.26438051 0.61456966
-0.061653331 0.27712002 0.61017811
-0.055237599 0.27479464 0.61395949
-0.0446673 0.27524412 0.61751682
-0.035186224 0.27501306 0.61776954
-0.024846543 0.27660766 0.61827481
-0.014679397 0.27565935 0.61788595
-0.0047873962 0.27556172 0.6173861
0.0051120878 0.27489972 0.61608809
0.014599326 0.27529898 0.61693382
0.024928074 0.2751804 0.61800814
0.034845624 0.27492642 0.61512554
0.045124788 0.27460825 0.61442566
0.054401912 0.27542418 0.61600757
0.065186359 0.27528641 0.6168775
0.075017937 0.27502877 0.61680967
0.085353956 0.27530485 0.61692226
0.095137022 0.27486607 0.61575502
0.10484029 0.27462009 0.61518341
0.11540925 0.27554885 0.61677235
0.12494199 0.27493635 0.61482179
0.13292752 0.27535877 0.61209875
0.18491857 0.2741718 0.61497647
0.19034803 0.27220419 0.6193803
-0.061530456 0.28522086 0.61107635
-0.056306835 0.2844198 0.61465377
-0.044664331 0.28308502 0.61768937
-0.03475767 0.284251 0.61774504
-0.024837518 0.28428271 0.6181007
-0.015138903 0.28391346 0.61677039
-0.0055450248 0.28378969 0.61744797
0.0051986668 0.28229916 0.61676657
0.014939315 0.28315887 0.61768252
0.024994437 0.28415126 0.61800462
0.034936149 0.28470987 0.61667079
0.045191921 0.28470823 0.61550599
0.055457905 0.28483126 0.61568534
0.064718634 0.28477257 0.6151861
0.074782342 0.28423864 0.61520243
0.085398406 0.28501999 0.61618841
0.095062286 0.28494078 0.61639494
0.10483634 0.28526378 0.61491805
0.11447986 0.28493369 0.61584973
0.12520193 0.28491816 0.61641914
0.13431968 0.28537145 0.61264074
0.17919999 0.28799999 0.61017805
0.18127541 0.2882466 0.61070168
-0.10145912 0.29530114 0.61093521
-0.099237844 0.29771399 0.61041081
-0.062782779 0.29562429 0.61102194
-0.056314442 0.295102 0.6160022
-0.035270657 0.29060322 0.61890185
-0.023372792 0.29022616 0.61902142
0.027935036 0.29039443 0.6193803
0.036599975 0.29416856 0.61850148
0.045477867 0.29492971 0.61761487
0.053544033 0.29424039 0.61669904
0.063797466 0.2906329 0.61439103
0.086404093 0.2921986 0.61672586
0.094723135 0.2920312 0.61810702
0.10551158 0.2924476 0.61549932
0.11440977 0.29221365 0.616822
0.12625819 0.29167488 0.61832571
0.13457605 0.29519871 0.61364597
0.17697172 0.29571763 0.61058533
0.18102419 0.29465884 0.61093467
-0.1018412 0.30503145 0.61422986
-0.09683603 0.30593219 0.6113975
-0.063821197 0.30508211 0.611031
-0.056799114 0.3050532 0.6163547
0.038915485 0.304279 0.61915952
0.04538516 0.30475545 0.61863822
0.051172741 0.30348814 0.61759102
0.13515161 0.30501184 0.61369801
0.1408 0.30847999 0.61017811
0.16774823 0.30613762 0.61083573
0.17503139 0.30500177 0.61145568
0.18048878 0.30510092 0.61237943
-0.10175299 0.31603789 0.61659908
-0.095230326 0.31530568 0.61246043
-0.084241614 0.31727117 0.61023176
-0.075440004 0.31675997 0.61017805
-0.064849615 0.31549972 0.61148047
-0.057559986 0.31508726 0.61738777
0.12946287 0.3192285 0.61818743
0.13475403 0.31503993 0.61412436
0.14218171 0.31578067 0.61043406
0.15782401 0.31884798 0.61017811
0.16570367 0.31548044 0.61196405
0.17440931 0.31497931 0.61319077
0.18069075 0.31301728 0.61481577
-0.10153526 0.32506639 0.61658472
-0.094750896 0.32492328 0.61431313
-0.084618814 0.32524863 0.61107516
-0.075250909 0.32508045 0.61042261
-0.065580294 0.32525548 0.61187238
-0.056764092 0.32481587 0.61710376
0.12841049 0.32574922 0.61743879
0.13522632 0.32490176 0.61347282
0.1426121 0.32510322 0.61031014
0.15723766 0.32574731 0.6107136
0.16524267 0.32471293 0.61362588
0.17449963 0.32490554 0.6143136
-0.1012482 0.33489811 0.61878276
-0.095388375 0.33467931 0.6184383
-0.084684372 0.33474773 0.61294037
-0.075208098 0.33490452 0.61060262
-0.065328844 0.33495402 0.61199355
-0.057008252 0.33456802 0.61535591
0.12616903 0.33531621 0.61701536
0.1349982 0.33503565 0.61364174
0.14449848 0.33552513 0.6109885
0.15471834 0.33502477 0.61171877
0.16505171 0.33506674 0.61570895
0.17273964 0.33429825 0.61597848
-0.083467335 0.34405822 0.61603224
-0.074734852 0.34480384 0.61347121
-0.065191336 0.34466001 0.61325747
-0.055779811 0.3453587 0.61553645
0.11664616 0.34592322 0.61801922
0.12506168 0.34470022 0.61615008
0.13502534 0.34519002 0.61390984
0.14486253 0.34500238 0.61306679
0.15437789 0.34486032 0.61508435
0.1640068 0.34410378 0.61775959
0.1718144 0.34125525 0.61763036
-0.0825058 0.35016242 0.6193803
-0.072798476 0.35361728 0.6176483
-0.064616352 0.35525298 0.61603701
-0.05516417 0.35488081 0.61592549
-0.047353353 0.35697231 0.61784256
0.10959031 0.35618511 0.61906153
0.11540302 0.35496968 0.61813754
0.12542607 0.35494605 0.61640573
0.13491163 0.35528386 0.61507028
0.14488328 0.35509971 0.61622077
0.15249152 0.35377061 0.61866403
-0.063007027 0.36409238 0.61789769
-0.054756712 0.36483911 0.61595386
-0.04567679 0.36519685 0.61739773
-0.03731966 0.36879334 0.61833876
0.097288638 0.36812925 0.61862183
0.1061326 0.36643764 0.61849737
0.11517176 0.36521369 0.61779296
0.1253372 0.36459973 0.61657733
0.13506372 0.36474812 0.61709845
0.14376673 0.36304003 0.6185078
-0.060417634 0.37095127 0.6193803
-0.054098733 0.37326527 0.61755186
-0.045113344 0.37422153 0.61716068
-0.035604171 0.37455031 0.61817187
-0.027068831 0.37614846 0.61938035
0.095572673 0.3742587 0.61796439
0.10490284 0.37450927 0.61758429
0.11524084 0.37457928 0.61694503
0.12436385 0.37409949 0.61761969
0.13182843 0.37124109 0.6191411
-0.050023202 0.3800464 0.6193803
-0.044269141 0.38060325 0.6193803
-0.034909632 0.38312393 0.61904281
-0.025480794 0.38250074 0.6193803
0.094410978 0.38201284 0.61921716
0.10591044 0.38214216 0.61876565
0.11433672 0.38176769 0.6184845
0.12187161 0.38076532 0.61914104
0.031622157 0.20818628 0.62812799
0.017830189 0.21528302 0.62960595
0.025681341 0.21550313 0.62960601
0.031795312 0.21467099 0.62799281
0.015188679 0.22122641 0.62960595
0.032815922 0.22286586 0.62827528
0.028730685 0.23821633 0.62610012
0.032697849 0.23658451 0.62532961
0.028300475 0.24487507 0.62485039
0.032768786 0.24517517 0.62374616
-0.050256409 0.25911421 0.62226784
-0.046748139 0.25363928 0.62190783
0.02796985 0.25510076 0.626652
0.033086788 0.25437123 0.62435246
0.11735497 0.25511804 0.62245554
0.12169673 0.25901267 0.62046015
-0.050715722 0.26662749 0.62190795
-0.047872085 0.26493976 0.62606519
-0.033821136 0.26991871 0.62009966
-0.026122078 0.26971439 0.62263095
0.014609415 0.26920971 0.62349367
0.026699917 0.26945782 0.62091249
0.039128698 0.2634449 0.62291759
0.043947201 0.26430485 0.62436199
0.051526017 0.26822743 0.62344682
0.076097563 0.2686179 0.62009966
0.085494101 0.26784149 0.62049305
0.091056913 0.26731709 0.62009966
0.10306129 0.26969358 0.62058091
0.11806182 0.26600111 0.62313604
0.12107026 0.26234099 0.62125468
-0.05105691 0.27642277 0.62009966
-0.047487568 0.27386597 0.62020266
-0.032443725 0.27098235 0.62040871
-0.024747264 0.27294031 0.62088531
-0.01595667 0.27180412 0.620942
-0.0064052613 0.27180424 0.62094229
0.017425751 0.27157569 0.62292629
0.021766493 0.27117082 0.62342662
0.074883722 0.27023256 0.6208207
0.10471544 0.27121952 0.62009966
0.11356097 0.27278051 0.62009966
0.18796748 0.27772358 0.62009966
0.1905691 0.27382115 0.62009966
-0.052096792 0.28783527 0.62086624
-0.046043616 0.28806943 0.62077016
-0.039241195 0.28899729 0.62009966
-0.02493225 0.28509486 0.62009966
-0.0032520327 0.28943092 0.62009966
0.009767442 0.28716278 0.6208207
0.0156171 0.28855807 0.62046051
0.021680217 0.28899729 0.62009966
0.03317073 0.28943089 0.62009966
0.1875359 0.28065154 0.6208216
-0.05167193 0.29454473 0.62046027
-0.045803253 0.29368213 0.6215446
-0.035379291 0.29359338 0.62202185
-0.027088618 0.29284099 0.62227261
-0.0032634032 0.29044288 0.62226784
0.016936408 0.29315165 0.62109238
0.024721965 0.29524821 0.62123108
0.03325532 0.29582995 0.62067139
0.089157492 0.29675817 0.62046015
0.093114935 0.29541266 0.62082183
0.10626309 0.29662398 0.62154347
0.11752301 0.29670191 0.62204444
0.1245192 0.29651028 0.62137991
0.1307317 0.2985366 0.62009966
-0.052020047 0.30496135 0.6208213
0.025695508 0.30535606 0.62506145
0.034040798 0.30512416 0.62247807
0.040975608 0.30894309 0.62009966
0.11735524 0.3049576 0.62537467
0.1250269 0.30511403 0.62347281
0.13095991 0.30492234 0.62118208
-0.052308589 0.31538075 0.62082183
-0.048530824 0.31584629 0.62190598
0.026047206 0.31424168 0.62774855
0.035548508 0.31519073 0.62449932
0.044304702 0.31488195 0.62167895
0.11673825 0.31610674 0.62685651
0.1250169 0.31493291 0.62353539
0.13080771 0.3123759 0.62046015
-0.051283371 0.32467651 0.62116557
-0.045427833 0.32555398 0.62456912
-0.038916372 0.32914016 0.62886435
0.025730556 0.32442957 0.62897927
0.034973726 0.32498667 0.62763524
0.043000389 0.32563338 0.62643462
0.11627326 0.32515267 0.62609798
0.12395873 0.32458603 0.6216926
-0.094308943 0.33886179 0.62009966
-0.051913373 0.33511358 0.62212437
-0.044669636 0.3352395 0.62624419
-0.038609143 0.33626267 0.62923539
0.02388373 0.33410078 0.62901276
0.03680221 0.33490458 0.62762499
0.044856634 0.33510625 0.62819541
0.11464117 0.33491465 0.62491757
0.12176152 0.33326572 0.62046045
-0.10081301 0.34016261 0.62009966
-0.094533831 0.34391433 0.62159908
-0.088475041 0.34649149 0.62147921
-0.05157081 0.34359062 0.6214599
-0.044616546 0.34501338 0.6244247
-0.036473881 0.34642744 0.62701434
0.024135225 0.34633228 0.62908959
0.036303405 0.34469798 0.62845421
0.044639815 0.34394267 0.62802529
0.10753057 0.34650475 0.62552327
0.11322815 0.34345073 0.62230772
0.1203252 0.34016261 0.62009966
0.15869918 0.34926829 0.62009966
0.16622844 0.34785837 0.6204201
0.17070358 0.34662062 0.62118208
-0.092399694 0.35308349 0.62428921
-0.085385308 0.35539454 0.62315845
-0.076656274 0.35663542 0.62131906
-0.050081301 0.3505691 0.62009966
-0.04442976 0.35401124 0.62152874
-0.035176445 0.35461044 0.62294674
-0.026369873 0.35615078 0.6249944
-0.019117188 0.35992932 0.62849617
0.024683814 0.35176045 0.62921083
0.034983512 0.3515515 0.62930936
0.09610904 0.3572275 0.62483305
0.10464684 0.35437164 0.6221562
0.15663472 0.35560396 0.62098229
0.16425583 0.35472694 0.62189829
0.17043479 0.35995299 0.62738639
-0.091147542 0.36065573 0.62518245
-0.084731214 0.36452618 0.62555033
-0.075285308 0.36484203 0.62386125
-0.067720518 0.3666237 0.62146473
-0.04098922 0.36369762 0.62030566
-0.034999754 0.3648659 0.62153256
-0.024647262 0.36500579 0.62231195
-0.01527478 0.36545828 0.62499017
-0.0067917565 0.3677212 0.62680131
0.077594675 0.3680191 0.62755316
0.085736468 0.36549217 0.62512511
0.094558597 0.36406463 0.62176657
0.10351128 0.36268842 0.62039357
0.1398374 0.36878049 0.62009966
0.14624214 0.36737716 0.62090194
0.15487397 0.36444166 0.62244344
0.16336012 0.36243194 0.62416887
-0.082832992 0.37325257 0.62808627
-0.075177781 0.37499812 0.626257
-0.065087765 0.37483054 0.62322259
-0.057212301 0.37756824 0.62100267
-0.031754892 0.37461421 0.62016517
-0.024545405 0.37475336 0.62061161
-0.015035234 0.37474677 0.62150925
-0.0051487093 0.37463841 0.62328148
0.0049563255 0.37507629 0.62518674
0.014924816 0.376625 0.62657619
0.024403868 0.37778375 0.62786281
0.034820314 0.37753135 0.62842119
0.04484123 0.37852579 0.62833261
0.056027576 0.37785879 0.62677985
0.065293789 0.37581104 0.62570119
0.074613072 0.37432405 0.62477839
0.084816262 0.37447831 0.62270308
0.091775492 0.37556505 0.62056667
0.10211382 0.37918699 0.62009966
0.12820539 0.37788901 0.62046045
0.13525522 0.37534487 0.62171608
0.14478569 0.37463647 0.6236161
0.15290625 0.37337056 0.62529159
-0.073227033 0.38487831 0.62748569
-0.065396607 0.38526902 0.62666702
-0.055104062 0.38470411 0.62382281
-0.044907171 0.3852635 0.62156796
-0.035026927 0.38663784 0.62067741
-0.024132757 0.38560078 0.6202544
-0.015067942 0.38487309 0.62056255
-0.0050509586 0.38468158 0.62125933
0.0054083448 0.38468122 0.62230116
0.015028344 0.38486668 0.62298387
0.02502392 0.38444465 0.62314683
0.035157412 0.38449794 0.62423128
0.044994067 0.38454774 0.62518424
0.054794651 0.38433304 0.62360317
0.065200053 0.38465372 0.62237859
0.075060278 0.38449019 0.62264937
0.084665939 0.38448697 0.62145573
0.095146343 0.38666037 0.62074924
0.10416089 0.38681847 0.62082142
0.11495015 0.38697079 0.62160814
0.12521294 0.38533923 0.62276965
0.13496999 0.38509279 0.62537092
0.14411181 0.38430965 0.6277833
-0.071705423 0.39109638 0.62720442
-0.064449936 0.39257273 0.62817049
-0.054645739 0.39255142 0.62853688
-0.045115624 0.39469087 0.62634927
-0.034708295 0.39467558 0.62368852
-0.024794254 0.39472318 0.62202859
-0.014849002 0.39463788 0.62132901
-0.0052170227 0.39460957 0.62185431
0.0053197336 0.39498419 0.62230533
0.015047475 0.39514816 0.62180716
0.02472459 0.39503559 0.62161285
0.035282109 0.3946144 0.62289208
0.045148868 0.39521465 0.6238392
0.054922882 0.39492413 0.62338054
0.065210573 0.39489502 0.62270099
0.075069875 0.39508161 0.62259787
0.084851712 0.39488938 0.62229431
0.094887495 0.39482859 0.62269014
0.10484361 0.39533776 0.62417555
0.11506227 0.39499307 0.62623632
0.12473071 0.39487603 0.62730527
0.13386516 0.39328441 0.62773693
-0.042883456 0.40047136 0.62901264
-0.033584096 0.40233222 0.62779814
-0.024192659 0.40366888 0.62680161
-0.015011675 0.40513101 0.62494862
-0.0052375868 0.40454072 0.62408864
0.0051769782 0.40469316 0.62331736
0.015036322 0.40453556 0.62207097
0.024936071 0.40489572 0.62222737
0.035135157 0.40489972 0.62322861
0.045195848 0.40544784 0.62448138
0.054809157 0.40507248 0.62436771
0.06482508 0.40466377 0.62427914
0.074460685 0.40404007 0.62412626
0.085344583 0.40483218 0.62383431
0.095006555 0.40559843 0.62483227
0.10492487 0.40537399 0.62646705
0.11397885 0.40457404 0.62865424
0.1221548 0.40190727 0.62867981
-0.013981308 0.41229793 0.62804401
-0.005263092 0.41245919 0.62717402
0.0052543185 0.41262871 0.62643307
0.016296018 0.41398969 0.62585461
0.024846939 0.41505018 0.62566823
0.034935497 0.41493827 0.62483388
0.044482157 0.41549268 0.6269697
0.054887339 0.41391984 0.62768865
0.063731357 0.41296795 0.628411
0.076392584 0.4119243 0.62865371
0.085646912 0.41285789 0.62642217
0.093702666 0.41082668 0.62469614
0.10286362 0.41079247 0.62564141
0.027020348 0.4213523 0.62827349
0.035543974 0.4230952 0.62753576
0.044913411 0.4231061 0.6278494
0.055218797 0.42377055 0.62858844
0.063999668 0.42325842 0.6290502
0.074866638 0.42115363 0.62886566
0.081226416 0.42066038 0.62960595
0.016983245 0.20931117 0.63084602
0.02496426 0.20850343 0.63089114
0.031074381 0.20958678 0.63034928
0.017714716 0.21542609 0.63105094
0.024861712 0.21460482 0.63078088
0.031086624 0.2158438 0.63059765
0.017680276 0.22471473 0.63282955
0.025290782 0.22466187 0.63261986
0.031649314 0.22601366 0.63225216
0.017957244 0.23144893 0.63409245
0.027688645 0.23265272 0.63354987
0.031538744 0.23339756 0.63306302
0.039341833 0.25737956 0.63573956
0.042753074 0.2578665 0.63632667
0.052279688 0.25871903 0.63902575
-0.048321515 0.269409 0.63109434
0.019196218 0.26940897 0.63109434
0.024509707 0.2678169 0.63157499
0.043103158 0.26153216 0.63221681
0.051450819 0.2669709 0.63159287
-0.048264466 0.27041322 0.63034928
0.019173553 0.27041322 0.63034928
0.023166066 0.27051219 0.63109553
0.023900235 0.31882608 0.63045573
0.026145754 0.32570997 0.63034922
0.031735536 0.32991734 0.63034928
0.11150866 0.32670784 0.63206917
-0.035665486 0.33662331 0.63211328
0.027437754 0.33507702 0.63107049
0.032416236 0.33541411 0.63073957
0.10725141 0.3358942 0.63300395
0.11054374 0.33030733 0.63109434
-0.0330837 0.34413812 0.63210905
-0.026626887 0.34628823 0.63516641
0.027731912 0.34449878 0.63085747
0.032795791 0.34494674 0.63077503
0.042093664 0.34887052 0.63034928
0.099138893 0.34966478 0.63864422
0.10435008 0.34483004 0.63454151
-0.023634719 0.35432568 0.63430071
-0.014803878 0.35700458 0.63675821
-0.007825708 0.35746109 0.63494134
0.018567599 0.35940766 0.6322155
0.026341068 0.35698184 0.63157821
0.034734998 0.35534817 0.63175309
0.042707939 0.35390061 0.63326925
0.08914426 0.35925767 0.63902575
0.095014527 0.35537088 0.63572472
0.10122985 0.35162148 0.63307077
-0.014135135 0.36188322 0.63347441
-0.0053670821 0.36467934 0.63393807
0.002476275 0.3671146 0.63753957
0.017474309 0.3656776 0.63430542
0.025278497 0.36509275 0.63214082
0.03531066 0.3650687 0.63357812
0.041810244 0.36486289 0.63868916
0.067389786 0.36728251 0.63783032
0.074808888 0.36626196 0.63675421
0.084879547 0.36311087 0.635481
0.090000004 0.36066666 0.63560218
0.17256199 0.36099172 0.63034928
-0.00099369348 0.37046126 0.63184345
0.0054387422 0.37177852 0.63479275
0.015231702 0.37273949 0.63422769
0.02523208 0.37327737 0.63197511
0.035631802 0.37307742 0.63252074
0.044776388 0.37526432 0.63568509
0.05450673 0.37563887 0.63567317
0.064698808 0.37297633 0.63495171
0.071120471 0.37056392 0.63372308
0.15423168 0.37929079 0.63109434
0.14628813 0.38776541 0.63109583
0.15253516 0.38432151 0.63334352
-0.061406907 0.39677024 0.63075584
-0.05562558 0.39738071 0.6309883
-0.049586777 0.39867768 0.63034928
0.12853566 0.39839405 0.63059765
0.13090909 0.39867768 0.63034928
-0.060379148 0.40142182 0.63258982
-0.054426301 0.40234482 0.6323933
-0.045177337 0.40433773 0.63144231
-0.035920631 0.40704307 0.63248575
-0.026652962 0.40796775 0.63095909
0.1165374 0.40361884 0.63065624
0.12461612 0.40185949 0.63084602
-0.040618312 0.41084424 0.63484639
-0.033413798 0.41404366 0.63613665
-0.026162343 0.41457167 0.63450551
-0.015723713 0.41617873 0.63211077
-0.0053025628 0.41842559 0.63221598
0.0033106375 0.41807938 0.63169289
0.013453947 0.41663679 0.63084602
0.056251179 0.41890818 0.63094532
0.065853208 0.41713893 0.63205093
0.075003736 0.41610938 0.63242596
0.082903594 0.41829893 0.63088202
-0.027007675 0.42161795 0.63838899
-0.012128604 0.4220666 0.63530129
-0.0050519495 0.4210639 0.63379157
0.0019926229 0.42066509 0.63359159
0.02607326 0.42566922 0.63270128
0.031564675 0.42667753 0.63134331
0.049586777 0.42115703 0.63034928
0.054746423 0.42308959 0.63210958
0.065018058 0.42325759 0.63383585
0.074143507 0.42228192 0.63292956
0.083553895 0.42107764 0.63221776
0.027707867 0.43097642 0.63655096
0.039951634 0.23903264 0.64559352
0.045441847 0.2366866 0.6452598
0.052709293 0.23691428 0.64566064
0.044221021 0.24418634 0.64688092
0.052792601 0.24470268 0.64697361
0.039530329 0.25503564 0.64612472
0.044492994 0.25391117 0.64445406
0.052189481 0.25517872 0.64445263
0.088953391 0.34772608 0.64248633
0.095755316 0.34662887 0.64346737
0.10070773 0.34458083 0.64081609
-0.017575122 0.35453302 0.64227873
0.086607091 0.35574168 0.6427089
0.093216859 0.35221112 0.64207047
0.0057554883 0.36672565 0.64334083
0.012681941 0.36852533 0.64621753
0.045939881 0.3677322 0.64094436
0.054713726 0.36865443 0.64171493
0.063703902 0.36854869 0.6415863
0.078140058 0.36307868 0.64223039
0.082859375 0.36125818 0.64167106
0.0082193492 0.37095243 0.64233416
0.011454534 0.37153488 0.64249051
0.047462221 0.37162957 0.64094394
0.055765342 0.3724741 0.64161003
0.062732458 0.37179872 0.6419735
-0.030215828 0.42100719 0.64017487
-0.028872902 0.42369303 0.64017487
0.038903125 0.24706979 0.65070814
0.038895223 0.25179482 0.650576
0.011595615 0.3676492 0.65031159
