# .PCD v0.7 - Point Cloud Data file format
VERSION 0.7
FIELDS x y z rgb
SIZE 4 4 4 4
TYPE F F F F
COUNT 1 1 1 1
WIDTH 785
HEIGHT 1
VIEWPOINT 0 0 0 1 0 0 0
POINTS 785
DATA ascii
0.27784348 -0.070667557 0.45938659 3.597419e-39
0.28316304 -0.070851274 0.45902219 3.3222685e-39
0.26911467 -0.062958002 0.45937711 2.8605771e-39
0.27499497 -0.064669229 0.45758367 3.0449669e-39
0.28471297 -0.064708069 0.45687282 3.0453284e-39
0.29237571 -0.063843392 0.45883647 3.3215552e-39
0.26924872 -0.058970865 0.45955202 2.6758285e-39
0.27522233 -0.057281099 0.45832112 2.4910771e-39
0.28463772 -0.056861393 0.45797244 2.2144916e-39
0.29229614 -0.057931554 0.45907933 2.8602197e-39
0.2688899 -0.080815554 0.46867883 4.6958464e-39
0.27538335 -0.082180314 0.46745434 6.7209077e-39
0.28497773 -0.083060011 0.46690711 7.9165684e-39
0.2911109 -0.081119031 0.46621919 6.3560894e-39
0.26638088 -0.074105926 0.46629927 3.4108698e-39
0.27460763 -0.075337648 0.46304435 3.2297169e-39
0.28491738 -0.075800799 0.46290651 3.8740059e-39
0.29459226 -0.074917443 0.46525142 3.9665631e-39
0.30301285 -0.073016644 0.46748835 1.0786163e-38
0.25970459 -0.066176713 0.46952909 8.2799573e-39
0.2644769 -0.065094717 0.46460116 3.8711304e-39
0.27121416 -0.069288157 0.4606815 3.2279204e-39
0.28999326 -0.069764309 0.46020165 3.2333056e-39
0.29682603 -0.06545087 0.46175516 3.5059451e-39
0.30459556 -0.064790525 0.46528378 1.3091778e-38
0.31028947 -0.060833044 0.46690959 1.6410822e-38
0.26539016 -0.055152945 0.46428362 2.5832741e-39
0.27441114 -0.052543122 0.46162483 2.1222917e-39
0.28518161 -0.052053891 0.46157354 2.3066788e-39
0.29510632 -0.0540809 0.4620167 2.5836342e-39
0.30466095 -0.055029798 0.46651724 1.0326988e-38
0.31160852 -0.056437496 0.46880198 1.6410822e-38
0.2672171 -0.046991996 0.4675934 2.0301003e-39
0.27491701 -0.045580998 0.46683669 2.5832601e-39
0.28495184 -0.045304619 0.4667213 2.5832531e-39
0.29374233 -0.046336327 0.46659243 1.6609563e-39
0.30215734 -0.049001727 0.46840388 6.2703804e-39
0.26801789 -0.092242099 0.47841009 1.0482204e-38
0.27480859 -0.093393192 0.47738075 1.0392531e-38
0.28487879 -0.093314894 0.47725037 9.6589275e-39
0.2912077 -0.09384577 0.47744682 1.1681109e-38
0.25897971 -0.081848897 0.47813821 1.0481848e-38
0.26529643 -0.084733963 0.47497511 9.9304725e-39
0.27447867 -0.087020345 0.47218037 1.0944619e-38
0.28389829 -0.088102691 0.4720791 1.1497078e-38
0.2999309 -0.080884591 0.47228712 1.0852071e-38
0.30219492 -0.080642015 0.47267982 1.3075573e-38
0.25847578 -0.074629724 0.47515345 7.723185e-39
0.26240695 -0.0765232 0.47162589 7.5423937e-39
0.29894972 -0.07946296 0.47074208 8.558705e-39
0.30326834 -0.078010216 0.47117224 1.3543394e-38
0.25786889 -0.064957328 0.47392589 7.1754118e-39
0.26050729 -0.061506316 0.47038326 3.6888972e-39
0.257258 -0.055504415 0.47584426 3.6835022e-39
0.26126161 -0.054067444 0.47166204 3.5048703e-39
0.30917561 -0.051105 0.470337 1.6410822e-38
0.311748 -0.051966 0.47036529 1.6410822e-38
0.25847071 -0.047351841 0.47871625 2.3052467e-39
0.26342344 -0.044663031 0.47364742 2.0297416e-39
0.27399313 -0.040637817 0.47020373 1.476565e-39
0.28327408 -0.040445734 0.47007808 1.8453433e-39
0.29631156 -0.04208963 0.47096667 1.568762e-39
0.30563092 -0.044485614 0.47434008 1.2999584e-38
0.31176543 -0.045679264 0.47435176 1.6410822e-38
0.26798308 -0.039371133 0.47259676 1.2918178e-39
0.27607626 -0.037335102 0.47290239 1.384012e-39
0.28385255 -0.037629765 0.47219741 1.1999795e-39
0.29384282 -0.038778879 0.47180369 2.9513378e-39
0.30527678 -0.037534233 0.47802779 1.5949844e-38
0.31064263 -0.037822194 0.47805187 1.6410822e-38
0.2673409 -0.10215544 0.48762739 1.0757351e-38
0.27465743 -0.10382359 0.48601469 8.0948416e-39
0.28502536 -0.10431773 0.48566678 3.1335626e-39
0.29206821 -0.10403728 0.48535582 1.1129736e-38
0.25818971 -0.092876516 0.48779801 1.020562e-38
0.2644116 -0.095588803 0.48452234 1.0572964e-38
0.27475864 -0.098492064 0.48131561 8.1877547e-39
0.28485659 -0.098485552 0.48143172 3.9629631e-39
0.29176146 -0.098398238 0.48123857 1.1130098e-38
0.25721842 -0.084738396 0.48550701 7.1721706e-39
0.26146656 -0.088256784 0.48174158 1.0664799e-38
0.25518274 -0.074837409 0.48521754 4.6951318e-39
0.25453106 -0.065325364 0.48550993 3.6824218e-39
0.25438386 -0.055969808 0.48426753 3.4940691e-39
0.25701645 -0.045063552 0.48109215 2.118696e-39
0.26137868 -0.041288819 0.48071364 1.7527932e-39
0.25897723 -0.039812304 0.48104143 1.6602374e-39
0.26260394 -0.039641358 0.48170364 1.1996208e-39
0.28627977 -0.03168251 0.48422417 1.4198127e-38
0.29545724 -0.033592712 0.48457909 1.392154e-38
0.30381349 -0.034051023 0.48237792 1.6410822e-38
0.31127197 -0.034819227 0.48104161 1.6410822e-38
0.28660405 -0.028239934 0.48574075 1.6410822e-38
0.29436067 -0.028589068 0.48636404 1.6410822e-38
0.30137551 -0.02960651 0.48606035 1.6410822e-38
0.27733725 -0.12002926 0.49992645 1.122013e-38
0.28675932 -0.12002926 0.49992645 1.1312684e-38
0.26615879 -0.11298697 0.49780911 1.0942104e-38
0.27508184 -0.11454328 0.49565503 1.0392532e-38
0.28489095 -0.11459287 0.4953309 7.5474286e-39
0.29321957 -0.11462887 0.49649638 1.1407402e-38
0.2581293 -0.1036308 0.49719542 1.0389653e-38
0.26399302 -0.10593817 0.49340487 1.1032501e-38
0.27453637 -0.10863546 0.49132606 9.1061111e-39
0.28439599 -0.10891946 0.49099866 2.4899981e-39
0.29180774 -0.10907543 0.49118406 1.0213545e-38
0.25576457 -0.095005393 0.49546897 7.0803337e-39
0.26036841 -0.09902852 0.49059564 1.0299254e-38
0.25297636 -0.085127264 0.4951444 4.5114594e-39
0.25205153 -0.075957112 0.49511433 5.3451801e-39
0.25173751 -0.065200329 0.49557585 2.4838786e-39
0.25428981 -0.055437587 0.49024352 4.7808478e-39
0.27804241 -0.13089232 0.50883353 4.2359501e-39
0.28485775 -0.13168453 0.50873065 2.0283011e-39
0.29211706 -0.13107437 0.50914598 9.3866622e-39
0.26622579 -0.12271417 0.50674218 1.0392172e-38
0.27478325 -0.12495983 0.50429845 8.645856e-39
0.28497362 -0.12508258 0.50403714 5.7042418e-39
0.2936413 -0.12479621 0.50515461 1.1038621e-38
0.25722691 -0.11394675 0.50682193 1.0022307e-38
0.26352742 -0.11672097 0.50335526 1.1034659e-38
0.27165991 -0.11921886 0.50053686 9.9333494e-39
0.29572248 -0.11908218 0.5005368 1.1589995e-38
0.24938767 -0.10109922 0.50865203 5.891154e-39
0.25408149 -0.10521566 0.50468731 8.2749169e-39
0.24875022 -0.094584212 0.50747466 4.3303093e-39
0.25217861 -0.095861703 0.50365138 4.2330718e-39
0.24854071 -0.084840454 0.50589323 4.7930867e-39
0.25026652 -0.085727759 0.50233215 5.5277707e-39
0.24855185 -0.07598342 0.50495028 2.0279409e-39
0.25107479 -0.074639589 0.50153267 2.6718698e-39
0.24944006 -0.066968493 0.50283688 3.4015133e-39
0.25059435 -0.067842335 0.50095356 2.208012e-39
0.27774471 -0.14081672 0.51797044 5.5209296e-39
0.28347495 -0.14072891 0.51682878 6.4385657e-39
0.25904351 -0.13084005 0.51874965 1.0119907e-38
0.26630637 -0.13292783 0.51720893 1.0302496e-38
0.27451077 -0.13525523 0.51475006 7.6381865e-39
0.28454798 -0.13656916 0.51306504 3.22684e-39
0.29381326 -0.13287197 0.51129901 1.0674161e-38
0.30082646 -0.13084899 0.51344812 1.1691912e-38
0.25631124 -0.12408675 0.51549566 1.0023388e-38
0.26408204 -0.12698524 0.51269889 1.0484365e-38
0.27067703 -0.12947252 0.51133525 9.9333536e-39
0.29911387 -0.1288206 0.51124007 1.131341e-38
0.30812612 -0.12356492 0.51750278 1.1679308e-38
0.31555223 -0.1223664 0.51822615 1.4836294e-38
0.24985459 -0.1122557 0.51918858 5.6084463e-39
0.2527186 -0.11543223 0.5140962 7.7239011e-39
0.31540394 -0.11975866 0.51642489 1.5581061e-38
0.24889997 -0.10431912 0.51510924 5.9772288e-39
0.25076485 -0.10778497 0.51210099 6.6204374e-39
0.24724966 -0.095257089 0.51341617 2.4871184e-39
0.24796425 -0.086619996 0.51464415 2.8573401e-39
0.25949618 -0.14059651 0.52956188 1.2907743e-38
0.2661024 -0.14197977 0.52764934 1.1422166e-38
0.27500254 -0.14447109 0.52547902 9.8465572e-39
0.28067324 -0.14604793 0.52535081 1.0494808e-38
0.25621271 -0.1338134 0.52629662 1.0404414e-38
0.26401997 -0.13705491 0.523875 1.1421448e-38
0.27037418 -0.13989313 0.5220778 9.7514861e-39
0.30945367 -0.13144815 0.52319795 1.0954707e-38
0.31473118 -0.13401972 0.52508759 1.5672897e-38
0.32099974 -0.13364048 0.52606523 1.5581061e-38
0.24946712 -0.12332384 0.52945971 6.3463686e-39
0.25194243 -0.12524199 0.52438998 7.3565605e-39
0.30908093 -0.12793559 0.52157974 1.1404881e-38
0.31506082 -0.12725954 0.52187306 1.4650462e-38
0.32046878 -0.12767571 0.52168155 1.6410822e-38
0.24942647 -0.11437566 0.5274691 5.3329398e-39
0.25051492 -0.11629573 0.52369839 6.4364049e-39
0.24907438 -0.10501409 0.52488482 4.7812065e-39
0.25009289 -0.10965944 0.52894694 1.563723e-39
0.24836102 -0.096521191 0.52742338 2.392762e-39
0.26958141 -0.048186045 0.52976704 1.5684005e-39
0.27160078 -0.044869073 0.52905035 1.4765664e-39
0.26766276 -0.15106197 0.53777236 1.12493e-38
0.27454668 -0.15145139 0.53604186 1.1525526e-38
0.25712597 -0.14212663 0.53421456 1.2078341e-38
0.26480636 -0.14651632 0.53306258 1.1893228e-38
0.27330214 -0.14861077 0.53224999 1.1247138e-38
0.24911408 -0.1324075 0.5371666 7.7437084e-39
0.25286913 -0.13575821 0.53308827 8.8486141e-39
0.3208079 -0.13815221 0.53072751 1.6410822e-38
0.24876095 -0.12458295 0.53454244 6.4403649e-39
0.25077206 -0.12951496 0.53038383 5.5173366e-39
0.24761896 -0.11465432 0.53472519 4.5975355e-39
0.24777225 -0.10507893 0.53445262 4.5975355e-39
0.24626486 -0.098152034 0.53176427 4.2298348e-39
0.26290947 -0.061613202 0.53871644 2.0261403e-39
0.26371244 -0.054064386 0.5347057 2.21413e-39
0.26603481 -0.045104358 0.53402883 2.214493e-39
0.27332845 -0.042332727 0.53191769 1.7531547e-39
0.28021789 -0.040529184 0.53182834 2.0293829e-39
0.2681942 -0.036890808 0.53822511 2.5832727e-39
0.27474609 -0.035213601 0.53621298 2.3988828e-39
0.28330904 -0.034780592 0.53589869 2.4910785e-39
0.29061612 -0.036714058 0.53981 2.9524196e-39
0.27484447 -0.02815252 0.53952074 2.122296e-39
0.28225404 -0.028846739 0.53938419 2.3063271e-39
0.26846305 -0.15441571 0.54422706 1.0972712e-38
0.27385935 -0.15687117 0.54546732 1.0788322e-38
0.2544083 -0.14519151 0.54620588 1.0695048e-38
0.26055932 -0.14838098 0.54541194 1.235457e-38
0.24931316 -0.13460231 0.54478556 8.5745495e-39
0.25019324 -0.13711515 0.54597276 8.4823539e-39
0.24889119 -0.12689315 0.54285437 7.2776884e-39
0.24673119 -0.11333414 0.54666752 4.1379993e-39
0.24603435 -0.10580035 0.54554069 4.780845e-39
0.24528128 -0.099518798 0.54789227 3.8632075e-39
0.26197195 -0.062155142 0.54202902 3.588064e-39
0.26179543 -0.057930175 0.54183966 3.0406523e-39
0.26283398 -0.042236153 0.54542732 2.9513364e-39
0.26425955 -0.034989063 0.54480404 3.3208377e-39
0.28891531 -0.032021984 0.54126441 2.67619e-39
0.29540291 -0.033462051 0.54409152 8.9444138e-39
0.30235627 -0.033190407 0.54631859 1.6410822e-38
0.26675004 -0.025216328 0.54437447 3.044611e-39
0.274519 -0.023149716 0.54121757 2.3992416e-39
0.28453973 -0.024445526 0.54201674 2.7676654e-39
0.29440731 -0.026520979 0.54749894 7.9302619e-39
0.30364963 -0.027960259 0.54946703 1.6410822e-38
0.26746219 -0.015194352 0.54793376 2.9524154e-39
0.27494907 -0.015058578 0.54528987 2.4910771e-39
0.28338727 -0.015152884 0.54636455 2.8602183e-39
0.29058728 -0.019372486 0.54979843 4.0587643e-39
0.26883221 -0.0085556628 0.54953331 2.8602197e-39
0.2749477 -0.0069540381 0.54888594 2.3988814e-39
0.28199512 -0.0077310558 0.54917651 2.3070473e-39
0.26892182 -0.1608948 0.55939966 9.1284393e-39
0.2726959 -0.1632017 0.55611634 7.1934115e-39
0.25692406 -0.15358375 0.55695659 9.0362465e-39
0.26483488 -0.15621138 0.55727142 1.1156746e-38
0.27065805 -0.15912466 0.55444211 1.0235507e-38
0.25283518 -0.14709543 0.55128449 1.0234068e-38
0.25024155 -0.13932367 0.55024111 8.8514979e-39
0.24782658 -0.1211659 0.55404872 6.5386842e-39
0.25060821 -0.12307186 0.55304396 6.1652214e-39
0.24540959 -0.11464811 0.5541048 6.8999026e-39
0.24428117 -0.10548563 0.55511117 5.0585109e-39
0.24836932 -0.094706617 0.55768347 1.115531e-38
0.25105697 -0.092344888 0.55748773 1.4197767e-38
0.24792707 -0.084920436 0.55511689 1.6410822e-38
0.25286868 -0.084504433 0.55457151 1.3736068e-38
0.24792349 -0.077998698 0.55311602 1.6410822e-38
0.25544381 -0.078461468 0.55778933 1.5949484e-38
0.26085973 -0.076790586 0.5594759 5.4388191e-39
0.26107293 -0.031735182 0.55112934 4.0569622e-39
0.26232523 -0.024164019 0.55325556 3.6889e-39
0.29664737 -0.022071173 0.55111575 1.2170542e-38
0.30340594 -0.023996899 0.55233145 1.6410822e-38
0.26327938 -0.015057055 0.55558205 3.5970659e-39
0.28860852 -0.013198694 0.55127782 3.2290022e-39
0.29499817 -0.014986183 0.55337459 9.7738144e-39
0.30323681 -0.014987709 0.55642653 1.6410822e-38
0.26597214 -0.0050720773 0.55449027 3.044611e-39
0.27434483 -0.0021717923 0.55125535 2.5832727e-39
0.28516033 -0.0040453319 0.55306631 3.0449711e-39
0.29442132 -0.0054563303 0.55807167 8.4830769e-39
0.30257058 -0.0083476389 0.55861634 1.5488866e-38
0.26696119 0.004830624 0.55724031 2.8598596e-39
0.27480552 0.0048914044 0.55485278 2.3988828e-39
0.28387886 0.0046030888 0.5564397 2.7680241e-39
0.29149681 0.0010694731 0.55932319 3.4141152e-39
0.26801145 0.011890385 0.55909473 2.8591421e-39
0.27476576 0.012275001 0.55879897 2.399243e-39
0.28204915 0.01178069 0.55924708 2.5836328e-39
0.25916216 -0.1609932 0.56510544 3.1371625e-39
0.26553106 -0.16397683 0.56363881 4.0591188e-39
0.27137285 -0.16654371 0.56181061 3.8750877e-39
0.25794029 -0.15863751 0.56253761 5.6257285e-39
0.26114282 -0.15922503 0.56126893 8.2068446e-39
0.14873573 -0.1232 0.56971341 3.4130306e-39
0.15517153 -0.12396699 0.56957185 3.3215524e-39
0.16452582 -0.12395399 0.56970322 3.2293582e-39
0.17422166 -0.12245177 0.56986678 3.0456858e-39
0.18417571 -0.12074506 0.5699746 2.5821909e-39
0.24589798 -0.12319569 0.56564218 5.8086778e-39
0.14810139 -0.11634311 0.56953454 2.3070459e-39
0.15510051 -0.11581463 0.56918383 1.9386222e-39
0.16490892 -0.11607376 0.56937754 1.9379047e-39
0.17496881 -0.11658721 0.56953841 1.9379033e-39
0.18462123 -0.11716516 0.56992722 1.7527932e-39
0.23894785 -0.11136722 0.56864828 6.4644561e-40
0.242836 -0.11538195 0.5649761 4.1430384e-39
0.23837852 -0.10537738 0.5677675 5.5389124e-40
0.24212645 -0.10402477 0.56344002 1.2903759e-39
0.24650125 -0.096042037 0.56478316 9.4039528e-39
0.24791825 -0.089232735 0.56131458 1.6410822e-38
0.25773972 -0.073995121 0.56465441 1.6410822e-38
0.26221764 -0.073945321 0.56389558 6.0816676e-39
0.25823471 -0.069429651 0.56612021 1.6410822e-38
0.25941077 -0.012009102 0.56175512 4.2348753e-39
0.2605221 -0.012092139 0.56039321 3.872571e-39
0.25902864 -0.0051444373 0.56437784 4.2355942e-39
0.26189333 -0.0043524657 0.56192595 3.7807383e-39
0.29815975 -0.0019680473 0.56052488 1.6410822e-38
0.30309695 -0.0034350262 0.56224543 1.6134235e-38
0.25829461 0.0052353428 0.56799096 4.422505e-39
0.26241413 0.00518665 0.56363559 3.5967058e-39
0.28867617 0.0074589974 0.56168461 3.1368066e-39
0.29534474 0.0054829284 0.5637669 1.0511021e-38
0.30263916 0.004504716 0.5654211 1.6410822e-38
0.25755394 0.015261441 0.56786925 8.9249694e-39
0.2643536 0.015608901 0.5633828 5.0660737e-39
0.2750636 0.017349998 0.5609988 3.6860217e-39
0.28508943 0.016017029 0.56209117 4.0566035e-39
0.29471016 0.015014293 0.56663525 9.0322879e-39
0.30120033 0.012389158 0.5692898 1.6410822e-38
0.2558549 0.025269302 0.56809932 1.0487612e-38
0.26489979 0.024901642 0.5644685 1.0392177e-38
0.27498215 0.024900028 0.56267118 9.4752607e-39
0.28482208 0.024941877 0.56397367 9.5670976e-39
0.29364416 0.025308495 0.56784189 9.9319201e-39
0.24853069 0.035446253 0.56936651 1.011379e-38
0.25489745 0.034869559 0.56738162 1.0206703e-38
0.26476112 0.034637123 0.56520963 1.0392894e-38
0.27492112 0.034703247 0.56473184 1.0117389e-38
0.28482294 0.034901738 0.5656985 1.0301419e-38
0.29409617 0.035147399 0.56823444 1.1586401e-38
0.24951878 0.042086907 0.56977099 6.900983e-39
0.25541067 0.044641405 0.56852335 5.9837084e-39
0.26488003 0.045129105 0.56791157 6.6276401e-39
0.27485305 0.045114726 0.56812596 6.9953436e-39
0.28480449 0.045172893 0.56827086 7.2715675e-39
0.29348606 0.044328183 0.56907862 8.7423774e-39
0.25817737 0.052009188 0.56993133 3.5045087e-39
0.26452532 0.052897908 0.56989098 5.0657136e-39
0.27322769 0.051454 0.56997448 4.2406332e-39
0.28537115 0.051078934 0.56997448 3.8732941e-39
0.29004171 0.050909091 0.56997454 3.7810984e-39
0.29719588 -0.18158534 0.57858813 1.6410822e-38
0.30187678 -0.18069899 0.57878572 1.6410822e-38
0.29535928 -0.17535943 0.5756253 1.5858007e-38
0.30217355 -0.17541879 0.5753392 1.6410822e-38
0.29839864 -0.16787957 0.57130939 1.2263454e-38
0.30013376 -0.16996655 0.57140422 1.6410822e-38
0.14721262 -0.1313719 0.57462603 1.1894314e-38
0.15618293 -0.13191625 0.57146078 1.6134235e-38
0.16447987 -0.13288851 0.57224119 1.6410822e-38
0.17519583 -0.13272524 0.575297 1.6410822e-38
0.18418252 -0.1325043 0.57557958 1.6410822e-38
0.19614403 -0.13184796 0.57486916 1.6410822e-38
0.20069259 -0.13124034 0.57268119 1.6410822e-38
0.2188732 -0.13246317 0.57843697 1.6410822e-38
0.22351092 -0.13325959 0.57796866 1.6410822e-38
0.24341485 -0.13169909 0.57716638 5.8104813e-39
0.13917816 -0.1210181 0.57316208 1.8439126e-40
0.14458047 -0.1251425 0.57244122 2.8598568e-39
0.1543684 -0.12879658 0.57059681 4.1516732e-39
0.16594294 -0.12843256 0.57076812 3.8750863e-39
0.17559865 -0.12682261 0.57095814 4.1516746e-39
0.1852598 -0.12597917 0.57105559 4.8885208e-39
0.19513838 -0.12454618 0.57117224 4.1513173e-39
0.20493294 -0.1242505 0.5718509 3.6903391e-39
0.21539927 -0.12471335 0.5735147 4.795249e-39
0.22478741 -0.12488238 0.57528257 5.5335329e-39
0.23561908 -0.1243706 0.57690817 2.4917959e-39
0.24310379 -0.12568389 0.5736295 3.8754492e-39
0.13853857 -0.11639013 0.57188255 9.219563e-41
0.14352264 -0.11427914 0.57130927 2.2144916e-39
0.15512517 -0.11087026 0.57049006 1.1999809e-39
0.16542271 -0.11097028 0.5709424 1.2921751e-39
0.17519291 -0.1114504 0.57135946 1.1999809e-39
0.18534108 -0.11244301 0.57157034 1.2003397e-39
0.19497851 -0.1147958 0.5715903 1.2921751e-39
0.20503208 -0.11494389 0.57256639 1.199618e-39
0.21491756 -0.11502106 0.57335669 9.230325e-40
0.22497971 -0.11503023 0.57386571 9.2267236e-40
0.2349211 -0.11520828 0.57293618 1.1988991e-39
0.24090284 -0.11775957 0.57140476 1.3850896e-39
0.14676012 -0.1067058 0.57475519 1.1996208e-39
0.15499519 -0.10526484 0.57498628 1.8453503e-39
0.16501006 -0.10498879 0.57577705 1.3840106e-39
0.17491309 -0.10473515 0.57617098 1.1996208e-39
0.18509746 -0.1048798 0.57674718 1.1074252e-39
0.19504443 -0.1050105 0.57670313 9.230339e-40
0.20498477 -0.1051176 0.57746965 7.382825e-40
0.21473265 -0.10537728 0.57741511 5.5389124e-40
0.22498405 -0.1059537 0.57703704 3.6914125e-40
0.23409255 -0.10462968 0.57488418 4.6169561e-40
0.23999999 -0.1005848 0.57092685 6.4572814e-40
0.15721798 -0.099270567 0.57964331 1.6410822e-38
0.17615041 -0.09923318 0.57942498 1.6410822e-38
0.18607543 -0.09923216 0.57942027 5.0714757e-39
0.194242 -0.098761484 0.5792138 8.9433334e-39
0.20229821 -0.099249542 0.57952046 2.4899981e-39
0.21394283 -0.099144116 0.57890731 5.2555082e-39
0.23715436 -0.097685888 0.57711041 1.107065e-39
0.2444775 -0.094246052 0.57548785 8.7593037e-39
0.24738628 -0.088424027 0.57800245 1.5949844e-38
0.25062737 -0.086664215 0.57872468 1.6410822e-38
0.25973064 -0.056094278 0.57525206 1.6410822e-38
0.26138112 -0.053157818 0.57802469 1.5304475e-38
0.25713331 -0.043513745 0.57797468 1.6410822e-38
0.26275089 -0.044421352 0.5774439 8.7567828e-39
0.25583935 -0.034766078 0.57593608 1.604204e-38
0.2637229 -0.03524385 0.5767312 4.7869673e-39
0.25653115 -0.026897283 0.57793361 1.4475073e-38
0.26302338 -0.027232606 0.57828969 4.3252689e-39
0.25569716 0.0063783675 0.57180154 7.8189778e-39
0.30473149 0.0088946354 0.57124567 1.6410822e-38
0.24863765 0.018419178 0.57823592 1.0214614e-38
0.25301871 0.015158034 0.57392842 1.0574047e-38
0.29963273 0.01869783 0.57045031 1.6410822e-38
0.30329683 0.01511287 0.57174188 1.6410822e-38
0.23947988 0.02959856 0.57947958 9.2883569e-39
0.24581079 0.025582431 0.57544476 1.0684237e-38
0.25165978 0.023118658 0.57175303 1.1222656e-38
0.2986784 0.024206685 0.57097727 1.0762398e-38
0.30435395 0.025821071 0.57415807 1.3454434e-38
0.3152768 0.027606711 0.57888043 1.6410822e-38
0.23834109 0.03553322 0.57687134 6.9939017e-39
0.24360022 0.034856938 0.57211876 1.0393977e-38
0.29924864 0.034600228 0.57060915 9.8386398e-39
0.3049123 0.035193458 0.57302147 1.0394335e-38
0.31504929 0.034899447 0.57756275 1.6318266e-38
0.23834212 0.044174749 0.57748038 3.5967072e-39
0.24449432 0.045324679 0.57310498 4.4225064e-39
0.25137514 0.047897153 0.57065463 3.5963484e-39
0.29799408 0.046593141 0.57096714 6.262096e-39
0.30509749 0.045097258 0.57366586 6.9060262e-39
0.31516761 0.044725951 0.57786322 1.6410822e-38
0.23976266 0.051276173 0.57939768 3.6885427e-39
0.24578309 0.054379772 0.5764088 3.6845812e-39
0.25431937 0.055480726 0.57207483 3.2250422e-39
0.26532733 0.057082184 0.57058734 6.8991823e-39
0.27529773 0.055574048 0.57075733 6.5375884e-39
0.28467262 0.055555277 0.5710175 5.3404956e-39
0.29479292 0.054818761 0.57271582 3.5952652e-39
0.3045153 0.054092687 0.57770586 4.240636e-39
0.31437129 0.051651698 0.57934868 1.6410822e-38
0.2481728 0.061955951 0.57825565 4.6886522e-39
0.25536472 0.063389748 0.57494015 4.3213102e-39
0.26521799 0.064267486 0.57290566 3.9543269e-39
0.27495119 0.064763971 0.57297832 3.4036727e-39
0.28464323 0.064601533 0.57440233 4.4138646e-39
0.29398727 0.063936479 0.57701516 5.0570746e-39
0.30118287 0.060521476 0.57927507 6.4378468e-39
0.2783376 0.070771843 0.57964331 4.230911e-39
0.28213739 0.070771843 0.57964331 4.2309138e-39
0.27517241 -0.18006897 0.58913743 2.4917959e-39
0.28386471 -0.18049467 0.58947635 3.1375227e-39
0.29616299 -0.18207131 0.58013535 1.6410822e-38
0.3018136 -0.18213691 0.58186424 1.6410822e-38
0.2664569 -0.17399491 0.58818644 2.7676626e-39
0.27468023 -0.17896238 0.58769917 2.5843503e-39
0.28545499 -0.17896129 0.58780444 3.5992197e-39
0.26343337 -0.16749468 0.58753395 2.8594967e-39
0.23808786 -0.14290261 0.5856688 1.6410822e-38
0.24180992 -0.14196679 0.58424503 1.6410822e-38
0.1365366 -0.13441816 0.58427817 1.6410822e-38
0.14300025 -0.13523379 0.58256376 1.5949844e-38
0.16955251 -0.13850829 0.58285761 1.6410822e-38
0.17520675 -0.13789578 0.58271694 1.6410822e-38
0.18530805 -0.13731354 0.58212614 1.6410822e-38
0.19526617 -0.13695142 0.58299792 1.6410822e-38
0.20010282 -0.13772064 0.58560365 1.6410822e-38
0.21915111 -0.13548388 0.58013535 1.6410822e-38
0.22545712 -0.13413458 0.58046436 1.6410822e-38
0.23724525 -0.13399708 0.58646947 1.1525173e-38
0.24189624 -0.13698378 0.58473569 1.0419184e-38
0.13695948 -0.12607248 0.58508682 1.410629e-38
0.14093219 -0.12712494 0.58104008 8.3047813e-40
0.23568586 -0.12886879 0.58079368 2.9513336e-39
0.1348999 -0.11379484 0.58871418 1.6410822e-38
0.13563992 -0.10507555 0.58529556 1.4382518e-38
0.14372687 -0.10362875 0.58180642 6.5466072e-39
0.15172341 -0.10035677 0.58043128 1.6410822e-38
0.16305603 -0.10030561 0.58013535 1.4013736e-38
0.22923167 -0.1008236 0.58038181 1.1992607e-39
0.23065822 -0.1008236 0.58038181 3.6949998e-40
0.13588122 -0.097687416 0.58388627 1.6410822e-38
0.14505625 -0.097276792 0.5838573 1.6410822e-38
0.15509933 -0.096931428 0.5829649 1.6410822e-38
0.16322526 -0.098285735 0.58182853 1.6134235e-38
0.17643753 -0.096611254 0.58284974 1.6410822e-38
0.18508086 -0.095682099 0.58338314 1.6226431e-38
0.19531794 -0.09499713 0.58259118 1.6410822e-38
0.20499115 -0.096028656 0.58285099 1.5304475e-38
0.21242404 -0.096119329 0.58445328 1.539667e-38
0.23642462 -0.094238378 0.58274323 2.6751096e-39
0.2403056 -0.091511033 0.58013535 1.8449902e-39
0.23888379 -0.088054962 0.58469737 1.1985792e-38
0.24463065 -0.085598469 0.58371532 1.5673257e-38
0.25057718 -0.084222279 0.5833686 1.6410822e-38
0.25974488 -0.075301774 0.581617 1.6410822e-38
0.26252389 -0.072183393 0.58784229 1.6410822e-38
0.25986296 -0.060890593 0.58510399 1.6410822e-38
0.26448864 -0.065228641 0.58885062 1.6410822e-38
0.25835326 -0.05451167 0.58182412 1.6410822e-38
0.26030979 -0.05561541 0.58094448 1.6410822e-38
0.25759089 -0.047929935 0.58089429 1.6410822e-38
0.26003397 -0.049915109 0.58013535 1.6410822e-38
0.25578493 -0.022371069 0.58086807 1.5397029e-38
0.26260912 -0.022160942 0.58062869 4.5085811e-39
0.25706166 -0.015462225 0.58170074 1.05085e-38
0.26209378 -0.017642774 0.58192998 4.4163841e-39
0.25509903 -0.0041532097 0.58511364 5.9815476e-39
0.24926448 0.0088503016 0.58913779 1.0386782e-38
0.25337249 0.0052483124 0.58553129 8.5540233e-39
0.23829934 0.018979859 0.58888423 8.0962835e-39
0.24560741 0.015563798 0.5850175 1.0498406e-38
0.25168875 0.01135613 0.58239567 9.9293977e-39
0.31555596 0.017166568 0.58778059 1.6410822e-38
0.32020637 0.019742046 0.58761775 1.6410822e-38
0.23679619 0.025362039 0.58508509 7.0832148e-39
0.24170758 0.02291254 0.58168435 8.4704597e-39
0.30915457 0.021894079 0.58087617 1.6410822e-38
0.31569269 0.023493314 0.58298254 1.6410822e-38
0.3207213 0.022132888 0.5872426 1.6410822e-38
0.23619115 0.034443676 0.58460003 3.4079929e-39
0.23589753 0.045351584 0.58446032 3.1321263e-39
0.31647578 0.04939162 0.58019012 1.6410822e-38
0.23735924 0.054392364 0.58451301 5.5184128e-39
0.24144806 0.057297383 0.58081925 5.8857548e-39
0.30767038 0.057670951 0.58067846 9.5818617e-39
0.31546777 0.055521205 0.5824039 1.6410822e-38
0.32082409 0.057153337 0.58610654 1.6410822e-38
0.23904121 0.061629787 0.58833599 5.4244165e-39
0.24477567 0.064927787 0.58472526 4.7808478e-39
0.25422293 0.068300933 0.58214569 4.6904514e-39
0.26495066 0.069491886 0.58049393 4.7822841e-39
0.27144313 0.069881156 0.58013535 4.5064217e-39
0.28867945 0.069435462 0.58038187 4.3223906e-39
0.295452 0.067334592 0.58072168 4.8726847e-39
0.30482745 0.06471844 0.58510363 8.008055e-39
0.31598786 0.062909029 0.58769083 1.6410822e-38
0.32057282 0.061743449 0.5871141 1.6410822e-38
0.24793397 0.071921274 0.58865666 4.3209473e-39
0.25537792 0.073549844 0.5871765 4.1372777e-39
0.26486358 0.074543245 0.58562583 4.1372777e-39
0.27464485 0.075162902 0.58558357 3.9532479e-39
0.28447652 0.074316517 0.58575416 3.8614124e-39
0.29362261 0.072513908 0.58600211 4.229832e-39
0.3015013 0.070785157 0.5896458 4.7815681e-39
0.27673712 -0.19129653 0.59924883 4.4286216e-39
0.29754817 -0.19144656 0.59738451 1.6410822e-38
0.30073684 -0.19143918 0.59547108 1.6410822e-38
0.2677055 -0.1825863 0.59508181 2.7680241e-39
0.27459586 -0.18515934 0.59500605 3.4137508e-39
0.28603235 -0.18469036 0.59587908 3.5988596e-39
0.29524663 -0.18647945 0.59547794 1.3184694e-38
0.30153388 -0.18832448 0.59447199 1.6410822e-38
0.26451758 -0.17588533 0.59308445 2.4907155e-39
0.26266089 -0.16780959 0.59187543 2.4921547e-39
0.26183489 -0.15137389 0.5991236 3.0442537e-39
0.23533531 -0.14204389 0.59298283 1.6410822e-38
0.25584742 -0.14453048 0.59841579 1.2354573e-38
0.26114056 -0.14778572 0.5987016 2.8595023e-39
0.13317165 -0.13199601 0.59066558 1.6410822e-38
0.23592541 -0.13785468 0.59201235 1.6410822e-38
0.25429374 -0.13943069 0.59564292 1.0235872e-38
0.13346541 -0.12465995 0.59126717 1.6410822e-38
0.1330138 -0.11593561 0.5907883 1.6410822e-38
0.13204356 -0.10669845 0.59025699 1.6410822e-38
0.21217668 -0.093752645 0.59035897 1.6410822e-38
0.23845592 -0.094395272 0.59685087 1.263152e-38
0.23958319 -0.088467173 0.59427482 1.6410822e-38
0.24126135 -0.084988974 0.59261036 1.6410822e-38
0.26214477 -0.071098194 0.59023994 1.6410822e-38
0.26210707 -0.069153711 0.59015495 1.6410822e-38
0.25360027 -0.0021096459 0.59451067 9.7471659e-39
0.24862076 0.0081663383 0.59632438 9.562776e-39
0.25224331 0.0033904873 0.59502846 9.4702188e-39
0.23776126 0.017448766 0.59556079 8.0012096e-39
0.24359569 0.012880668 0.59561235 9.4878556e-39
0.31965458 0.019827288 0.59015495 1.6410822e-38
0.23504445 0.024920991 0.59572881 4.143037e-39
0.23597635 0.035164136 0.59617656 2.2137713e-39
0.23575576 0.043218587 0.59272224 2.8562597e-39
0.2352677 0.053678755 0.59015495 5.3325811e-39
0.23920675 0.0649046 0.59379071 5.4244179e-39
0.24149978 0.068173058 0.59258759 5.1492688e-39
0.30792436 0.068635203 0.59044659 1.3271849e-38
0.31524894 0.067373522 0.59244984 1.6410822e-38
0.32079327 0.068638571 0.59405565 1.6410822e-38
0.24442004 0.074973539 0.59450674 5.2403826e-39
0.25438556 0.078384779 0.59071642 4.3205899e-39
0.26377025 0.0796718 0.59045279 4.4124254e-39
0.27574441 0.079792745 0.59015495 4.228753e-39
0.28557774 0.078614309 0.59064096 4.3205899e-39
0.29535472 0.077388793 0.59373683 4.3205885e-39
0.3051565 0.075378425 0.59494251 9.1180039e-39
0.31468764 0.074907206 0.5960241 1.6410822e-38
0.32062751 0.071250767 0.59555519 1.6410822e-38
0.24770865 0.082766719 0.59732533 4.9637971e-39
0.25495321 0.08458332 0.5951612 4.6879319e-39
0.26497787 0.085291736 0.59479022 4.4124254e-39
0.27478006 0.085243046 0.59484851 4.2283943e-39
0.28483507 0.084196351 0.59526879 4.4124254e-39
0.29456609 0.083439164 0.59733874 4.5042609e-39
0.30455929 0.082093976 0.59902817 9.9481261e-39
0.31349596 0.081369162 0.59882569 1.6410822e-38
0.26684991 0.091689207 0.59903133 4.596095e-39
0.27478212 0.092699736 0.59953952 5.1489101e-39
0.28065541 0.096828282 0.59982413 9.024009e-39
0.27588531 0.10436314 0.59934247 1.6410822e-38
0.27858591 -0.20074838 0.60890967 1.1986509e-38
0.28218177 -0.20091717 0.60841322 1.6410822e-38
0.29856622 -0.20087326 0.60828018 1.6410822e-38
0.27651331 -0.19533153 0.60479939 4.7052099e-39
0.28595918 -0.19563259 0.60560203 8.6681829e-39
0.29456574 -0.19571881 0.60436624 1.5304833e-38
0.30118915 -0.19628231 0.60275328 1.6410822e-38
0.28657013 -0.18885639 0.60123211 4.7981202e-39
0.25865313 -0.16147155 0.6081872 1.1340421e-38
0.26071951 -0.16120839 0.60719645 1.4762077e-39
0.257577 -0.15424302 0.60426277 1.2077628e-38
0.26179388 -0.15617183 0.60429907 1.6613178e-39
0.25625816 -0.14856465 0.60090476 1.2077986e-38
0.23711267 -0.10056338 0.60158402 1.6410822e-38
0.23846598 -0.094301723 0.60126764 1.6410822e-38
0.24007042 -0.089225352 0.60158402 1.6410822e-38
0.24983081 -0.00049866427 0.60854805 1.1216894e-38
0.25282761 -0.0028456149 0.60546631 1.1036103e-38
0.23946524 0.0094788587 0.6088202 8.0008509e-39
0.24580675 0.0061543318 0.60589349 9.2076716e-39
0.25109449 0.0021586556 0.60351735 1.0665159e-38
0.23736624 0.014917917 0.60529882 7.5423937e-39
0.24157004 0.01147317 0.60326523 7.8232952e-39
0.23543088 0.023734627 0.6040166 3.0399306e-39
0.23572223 0.034591928 0.60307145 1.9368243e-39
0.23939715 0.066130668 0.6052869 5.7002832e-39
0.23999999 0.067577638 0.60638815 5.7921187e-39
0.23943232 0.071460746 0.60559046 5.8843129e-39
0.24117036 0.075885206 0.60480326 5.8846744e-39
0.24530523 0.085395977 0.60501373 5.4233375e-39
0.25198805 0.08936619 0.60348409 4.779766e-39
0.28673074 0.089141123 0.60196418 4.5039008e-39
0.2964856 0.088441357 0.60348034 4.5960964e-39
0.30540121 0.087095007 0.60265714 1.2440648e-38
0.31317973 0.086174078 0.60252237 1.6410822e-38
0.24709636 0.094491251 0.60811621 9.0258083e-39
0.25503212 0.09498775 0.60591984 7.4574021e-39
0.26453918 0.095974751 0.60346252 6.2574184e-39
0.27544254 0.096521236 0.60159355 7.3644848e-39
0.28477949 0.092926063 0.60356158 5.3336615e-39
0.29552457 0.093859985 0.6073969 5.4262172e-39
0.30517966 0.094186276 0.60697854 1.410269e-38
0.31209689 0.093451299 0.60564727 1.6410822e-38
0.23928635 0.10041035 0.60963374 1.6410822e-38
0.24663904 0.10136777 0.60938317 1.604204e-38
0.25527802 0.10305163 0.60824496 1.6410822e-38
0.26478514 0.10396592 0.60728765 1.6410822e-38
0.27440882 0.10318144 0.60324216 1.6410822e-38
0.28 0.10137083 0.60052675 1.6410822e-38
0.28409013 -0.21026252 0.61830157 1.6410822e-38
0.29234299 -0.21050724 0.6190213 1.6410822e-38
0.27742672 -0.20321628 0.61554533 1.0880521e-38
0.28494427 -0.20609787 0.6150285 1.6410822e-38
0.29459941 -0.20471825 0.61305267 1.6410822e-38
0.30049047 -0.20309977 0.61138105 1.6410822e-38
0.27491251 -0.19835414 0.61469322 3.6914153e-39
0.24819319 -0.0018800524 0.61608243 1.0570085e-38
0.25243714 -0.0046577696 0.61356139 1.1220132e-38
0.23875819 0.0079158749 0.61396563 8.1856023e-39
0.244054 0.0029328989 0.613873 1.030034e-38
0.23710781 0.014539304 0.61461461 6.2563366e-39
0.23639134 0.021320682 0.61467284 2.1208568e-39
0.24144015 0.059981998 0.61512101 5.056713e-39
0.23976085 0.069434978 0.61254954 5.6088036e-39
0.24082096 0.065163329 0.61457276 5.4247753e-39
0.23745504 0.07726644 0.61652797 6.716956e-39
0.24115291 0.077223249 0.61343354 5.9757897e-39
0.22846958 0.086845078 0.6172471 1.6410822e-38
0.2352564 0.085045204 0.6167357 1.3271489e-38
0.24228443 0.085549682 0.61372006 5.8839556e-39
0.22948915 0.091593072 0.6164161 1.6410822e-38
0.23562342 0.094689764 0.61438245 1.6410822e-38
0.24267542 0.094926558 0.6113708 1.1703803e-38
0.29892224 0.098529637 0.61035991 1.6410822e-38
0.30368751 0.099051744 0.61098278 1.6410822e-38
0.31276175 0.098840915 0.61090654 1.6410822e-38
0.23598178 0.10047799 0.61441082 1.6410822e-38
0.24553086 0.1009414 0.61025602 1.6410822e-38
0.25049999 0.1025 0.61017811 1.6410822e-38
0.27090347 0.10665976 0.61108822 1.6410822e-38
0.299034 0.10067979 0.61126965 1.6410822e-38
0.30609632 0.10247594 0.61235625 1.6410822e-38
0.31156221 0.10206255 0.61136991 1.6410822e-38
0.26757786 -0.21173973 0.62619758 1.6410822e-38
0.27479371 -0.21113026 0.62355983 1.6410822e-38
0.28038168 -0.2106677 0.62099004 1.6410822e-38
0.29385412 -0.21098506 0.6204263 1.6410822e-38
0.25979254 -0.20670412 0.62697619 1.6410822e-38
0.2659153 -0.20529909 0.62678587 1.6226431e-38
0.27374539 -0.20520128 0.62360322 1.2170901e-38
0.28050908 -0.20923637 0.62127221 1.6410822e-38
0.29372051 -0.20987296 0.62014472 1.6410822e-38
0.26808202 -0.19844367 0.62840235 7.2852512e-39
0.27247822 -0.19807805 0.62497264 2.7683828e-39
0.25881851 -0.18172006 0.6289348 1.6410822e-38
0.25682577 -0.17546101 0.62451857 1.6410822e-38
0.25528663 -0.16968153 0.62183756 1.6410822e-38
0.24691728 -0.0030901574 0.62366259 1.029494e-38
0.2517437 -0.0072100298 0.62380576 1.1771868e-38
0.23843855 0.0086423 0.6204263 7.9097413e-39
0.24238463 0.0011197238 0.62116045 8.5511408e-39
0.23718272 0.016035888 0.62488925 3.2239632e-39
0.23660135 0.022401517 0.6260004 1.6605975e-39
0.24298953 0.05830596 0.62693125 4.873042e-39
0.24208452 0.06430883 0.62588853 5.1499891e-39
0.23519562 0.075341567 0.62517333 1.1244266e-38
0.24047492 0.070095949 0.6243943 5.9833553e-39
0.22883947 0.082719877 0.62417573 1.6410822e-38
0.23109233 0.081059188 0.62217176 1.6410822e-38
0.25923562 -0.201492 0.63483536 1.6410822e-38
0.26213312 -0.20276956 0.63247854 1.6410822e-38
0.2592687 -0.19497877 0.63541043 1.6410822e-38
0.26393512 -0.19572058 0.63351858 1.5120083e-38
0.27068391 -0.19615526 0.63160765 2.953493e-39
0.25903481 -0.18566868 0.63336712 1.6410822e-38
0.26077086 -0.18829867 0.6330297 1.6410822e-38
0.25802401 -0.17942752 0.63102442 1.6410822e-38
0.25298774 -0.012469496 0.63395315 1.1772949e-38
0.24801737 -0.0045674839 0.63573968 9.3769428e-39
0.25067386 -0.0079062562 0.63271284 1.1862266e-38
0.24110381 0.00876348 0.63599896 7.2672473e-39
0.23772816 0.0139856 0.63427013 2.8569799e-39
0.24007407 0.010888889 0.63277727 5.1550253e-39
0.23742536 0.025424344 0.63170594 2.0275794e-39
0.24068466 0.028758485 0.63233852 1.384012e-39
0.23925857 0.032177944 0.63336372 1.1996208e-39
0.24048889 0.031422224 0.63277727 1.3836519e-39
0.23685089 0.058112297 0.63676184 5.3369013e-39
0.24134743 0.057452966 0.63164312 4.9652377e-39
0.23610203 0.065517627 0.6360032 1.0406941e-38
0.24090397 0.06479796 0.6322366 6.1691857e-39
0.22923096 0.077984549 0.63486546 1.6410822e-38
0.2325604 0.073857486 0.6340012 1.5764732e-38
0.22914612 0.080640748 0.63219446 1.6410822e-38
0.23010157 0.080147736 0.63102442 1.6410822e-38
0.24846509 -0.012035959 0.64652562 1.0576206e-38
0.25190979 -0.013630371 0.64539176 1.2979776e-38
0.24664429 -0.0046593752 0.64525092 8.5507849e-39
0.25093183 -0.0084060794 0.64108801 1.1400925e-38
0.23805588 0.0083656888 0.64487177 2.4896379e-39
0.24232352 0.0045697298 0.64516222 7.0846553e-39
0.23876809 0.011187379 0.64252007 2.3978024e-39
0.23246159 0.058478046 0.64603394 1.6410822e-38
0.22888295 0.065421887 0.64665848 1.6410822e-38
0.2319092 0.064263031 0.64475149 1.5857288e-38
0.22943459 0.073056884 0.6451444 1.6410822e-38
0.23082124 0.073350757 0.64350504 1.6410822e-38
0.24474795 -0.013685719 0.65571898 1.4190924e-38
0.25317228 -0.016878065 0.65044379 1.6410822e-38
0.24429399 -0.0052193678 0.65308225 9.2890688e-39
0.23992367 0.0037404581 0.65209872 2.2130538e-39
0.24166575 0.0025040938 0.65147901 6.6254751e-39
0.22891203 0.056383118 0.65357155 1.6410822e-38
0.23318011 0.054063685 0.65475774 1.6410822e-38
0.22964795 0.060209323 0.65023738 1.6410822e-38
0.23775871 -0.016396636 0.66701287 1.6410822e-38
0.24297254 -0.016448086 0.66911066 1.6410822e-38
0.25913724 -0.019215686 0.66999948 1.6410822e-38
0.24426372 -0.0040890253 0.66744906 5.6134867e-39
0.23497713 0.04754851 0.66501838 1.6410822e-38
0.22975707 0.053229146 0.66285515 1.6410822e-38
0.23238534 0.051023331 0.66240215 1.6410822e-38
0.24823821 -0.02091725 0.67529696 1.6410822e-38
0.25549912 -0.021950241 0.67594934 1.6410822e-38
0.26133335 -0.02078161 0.67329997 1.6410822e-38
0.23792912 -0.012105995 0.67319769 1.6410822e-38
0.24362656 -0.013953194 0.6718263 1.6410822e-38
0.2558434 -0.01934032 0.67434514 1.6410822e-38
0.23692492 -0.0048073651 0.67460984 1.5857648e-38
0.24259014 -0.00527192 0.67178607 1.13379e-38
0.23674403 0.003285113 0.67662168 1.5949844e-38
0.24125892 0.0021254472 0.6726386 5.5313749e-39
0.23904477 0.010587065 0.67999947 1.6410822e-38
0.23524663 0.044629101 0.67473203 1.5119003e-38
0.23143835 0.05087889 0.67343301 1.6410822e-38
0.23533511 0.0072146347 0.6830132 1.5765453e-38
0.22938412 0.019068889 0.68442625 1.6410822e-38
0.23567247 0.015133193 0.68654716 1.6226431e-38
0.24108562 0.016833682 0.68464696 8.8403366e-39
0.22917075 0.025434814 0.68588662 1.6410822e-38
0.23523732 0.025497422 0.68791556 1.5764732e-38
0.24164623 0.025067976 0.68608403 5.3322209e-39
0.22929628 0.034932919 0.68752611 1.6410822e-38
0.23523317 0.035552807 0.68720633 1.4010855e-38
0.24098517 0.034453247 0.68506539 5.0552753e-39
0.22957037 0.043323733 0.68666261 1.6410822e-38
0.2336247 0.044407278 0.68473691 1.6410822e-38
